0.45858994,-0.25485763,-0.019178009,-209,-2906
0.46445143,-0.26480606,-0.019510651,-208,-2968
0.4830957,-0.2824951,-0.020388184,-208,-3031
0.5014133,-0.30060518,-0.021262664,-208,-3094
0.49809265,-0.30606812,-0.021209106,-207,-3156
0.47780502,-0.30084595,-0.020449525,-207,-3219
0.47027832,-0.30334473,-0.020217285,-206,-3282
0.43774566,-0.28920823,-0.018921662,-206,-3345
0.4304187,-0.29118288,-0.018693848,-206,-3407
0.4395366,-0.30441514,-0.019200439,-205,-3470
0.4484024,-0.31786805,-0.019688416,-205,-3533
0.4610724,-0.3345062,-0.020369567,-204,-3596
0.4694211,-0.34846848,-0.020852052,-204,-3658
0.44568604,-0.33848146,-0.019909669,-203,-3721
0.44194335,-0.34335205,-0.019858398,-203,-3784
0.41479033,-0.32938996,-0.018746033,-202,-3845
0.40339357,-0.32761842,-0.018344726,-202,-3908
0.4113237,-0.34159148,-0.01882492,-201,-3970
0.41897887,-0.3557846,-0.019302368,-201,-4033
0.4188414,-0.36362594,-0.019427033,-200,-4096
0.44472474,-0.39471772,-0.020772705,-200,-4159
0.4181807,-0.3794197,-0.019673614,-199,-4221
0.41400802,-0.38397172,-0.019621886,-199,-4284
0.38439882,-0.3644235,-0.018357849,-198,-4347
0.37679902,-0.3651352,-0.018120576,-197,-4409
0.3798944,-0.37625352,-0.018416747,-197,-4472
0.389794,-0.39460418,-0.019054413,-196,-4535
0.38545808,-0.39885545,-0.018986665,-196,-4597
0.40168762,-0.42482483,-0.019959413,-195,-4660
0.40718994,-0.44020385,-0.02039795,-194,-4723
0.4090805,-0.45202696,-0.020682069,-194,-4785
0.3676909,-0.4153015,-0.018749543,-193,-4847
0.0,-0.0,-0.0,0,0
0.0,-0.0,-0.0,0,0
0.0,-0.0,-0.0,0,0
0.37439895,-0.46202928,-0.01984665,-191,-5098
0.37554017,-0.47391173,-0.020106353,-190,-5160
0.37647355,-0.48587403,-0.020363618,-189,-5223
0.38625,-0.50986326,-0.021113282,-189,-5285
0.32714996,-0.44175568,-0.018077087,-188,-5347
0.3369667,-0.46553802,-0.018828582,-187,-5410
0.34053558,-0.4814096,-0.019247742,-186,-5472
0.34664336,-0.5015448,-0.019825745,-186,-5534
0.34117034,-0.5052866,-0.019751282,-185,-5597
0.33564147,-0.50897247,-0.01967682,-184,-5659
0.338192,-0.5252075,-0.020084381,-184,-5722
0.32981017,-0.52463865,-0.019848023,-183,-5784
0.33191773,-0.54097474,-0.020250702,-182,-5846
0.38502502,-0.64318085,-0.0238266,-182,-5909
0.40823823,-0.69913423,-0.02563385,-181,-5971
0.685603,1.1741455,-0.030754395,-129,5971
0.6598331,1.1022577,-0.029176025,-130,5909
0.67706114,1.1035243,-0.029521637,-130,5846
0.7236206,1.1511109,-0.03112793,-131,5784
0.76047,1.1809666,-0.03228653,-131,5722
0.8035614,1.2185082,-0.033639528,-132,5659
0.85311204,1.2635422,-0.035276793,-132,5597
0.8952621,1.2953087,-0.036577605,-133,5534
0.9237305,1.3058593,-0.03730469,-133,5472
0.9994397,1.3807857,-0.039908905,-134,5410
1.0679724,1.4421134,-0.04217987,-134,5347
1.1228229,1.4821875,-0.043877564,-135,5285
1.2063004,1.5567977,-0.046592712,-135,5222
1.2977033,1.6375961,-0.049622193,-136,5160
1.3972559,1.7242804,-0.052911986,-136,5098
1.4924927,1.8013458,-0.055914916,-136,5035
1.5766772,1.8612744,-0.05852783,-137,4973
1.6918308,1.953502,-0.062242582,-137,4910
1.8389626,2.0771003,-0.066986844,-138,4847
1.8950294,2.094007,-0.068452455,-138,4785
2.1553917,2.3300903,-0.07712708,-139,4723
2.3111782,2.4443693,-0.08205063,-139,4660
2.6608262,2.75328,-0.093622744,-140,4597
2.8417952,2.8768532,-0.099248655,-140,4535
2.9618096,2.9335585,-0.10257019,-140,4472
2.9578552,2.8661964,-0.101591796,-141,4409
3.014429,2.8578305,-0.10283524,-141,4347
3.0638196,2.841604,-0.10370911,-142,4284
3.1131988,2.824721,-0.10458603,-142,4221
3.1365204,2.7838218,-0.10459335,-142,4159
3.1742823,2.7558098,-0.105227664,-143,4096
3.2081208,2.7241404,-0.105609745,-143,4033
4.041321,3.3563812,-0.13214478,-144,3971
4.070125,3.305496,-0.13221344,-144,3908
4.086568,3.245136,-0.13190186,-144,3845
3.197928,2.482924,-0.10258484,-145,3782
3.2248719,2.4478226,-0.102832034,-145,3720
3.8697681,2.8709948,-0.122677,-145,3657
3.9090455,2.8343527,-0.123226315,-146,3594
3.401487,2.4098904,-0.106642455,-146,3531
3.365928,2.329931,-0.10497437,-146,3469
3.9584374,2.6764965,-0.12282593,-147,3406
3.74972,2.476036,-0.1156398,-147,3343
3.7892094,2.4430084,-0.11630096,-147,3281
3.3250525,2.09261,-0.10158417,-148,3218
3.232722,1.985403,-0.098326266,-148,3155
3.2627225,1.9551021,-0.09870148,-148,3093
3.3400717,1.952125,-0.10062378,-148,3030
3.348184,1.9080886,-0.10046905,-149,2967
3.355664,1.8641015,-0.10019531,-149,2905
3.3846116,1.8321807,-0.10069122,-149,2842
3.4220352,1.804378,-0.101332396,-150,2780
3.459308,1.7760708,-0.1020935,-150,2717
3.4830105,1.7404355,-0.1023436,-150,2655
3.5242677,1.7133251,-0.103239745,-150,2592
3.5426905,1.674685,-0.10335937,-151,2530
3.628881,1.6672249,-0.10558075,-151,2467
3.6743112,1.6398239,-0.10649643,-151,2405
4.1275635,1.7884369,-0.11920166,-151,2342
4.234473,1.7801979,-0.12199859,-152,2280
4.2859435,1.7471298,-0.12306915,-152,2217
4.323331,1.7075638,-0.12374268,-152,2155
4.3509736,1.6640216,-0.124151,-152,2092
4.368892,1.6165228,-0.124293216,-152,2030
4.4285984,1.5838884,-0.12563705,-153,1967
4.440674,1.5342987,-0.1257904,-153,1906
4.224827,1.4083662,-0.1193692,-153,1843
4.258952,1.3682563,-0.12004165,-153,1781
4.5602064,1.4104378,-0.12823486,-153,1718
1.1545833,0.34335586,-0.032397613,-154,1656
1.1246182,0.32113588,-0.031492308,-154,1593
1.0701975,0.29301453,-0.029911194,-154,1531
1.0298337,0.26995513,-0.02873108,-154,1468
0.98905885,0.24777833,-0.02751709,-154,1406
0.9722595,0.23233032,-0.027008057,-154,1343
0.92112124,0.20951614,-0.025551453,-154,1281
0.9038002,0.1952301,-0.02503891,-155,1218
0.88630235,0.18137008,-0.024497528,-155,1156
0.87351346,0.16885772,-0.024118653,-155,1094
0.8801962,0.16021942,-0.024281465,-155,1031
0.83754885,0.14303283,-0.023060609,-155,969
0.8292078,0.13232666,-0.02281494,-155,906
0.82564807,0.12254379,-0.022679139,-155,844
0.8170441,0.11216354,-0.02243271,-155,781
0.7884494,0.099472046,-0.021616973,-155,719
0.7696312,0.088597104,-0.021096801,-155,656
0.76558226,0.079660036,-0.020960694,-155,594
0.7464981,0.06946564,-0.020439148,-156,531
0.7173193,0.058864746,-0.019621583,-156,469
0.69797057,0.049603272,-0.019076537,-156,406
0.7383966,0.04437561,-0.020166626,-156,343
0.74381775,0.036558837,-0.020325623,-156,281
0.7042255,0.026915131,-0.019234315,-156,218
0.6894946,0.018825073,-0.018825073,-156,156
0.6996368,0.011450196,-0.0190979,-156,93
0.6997223,0.0038238526,-0.0190979,-156,31
0.68972623,-0.0037692261,-0.018825073,-156,-31
0.67464983,-0.011041259,-0.018415833,-156,-93
0.6745056,-0.018415833,-0.018415833,-156,-156
0.69923097,-0.026724244,-0.0190979,-156,-218
0.69888914,-0.034350585,-0.0190979,-156,-281
0.6086783,-0.036579896,-0.01662384,-156,-343
0.603246,-0.0428714,-0.01648758,-156,-406
0.62765443,-0.051506653,-0.017168885,-156,-469
0.6270584,-0.058351137,-0.017168885,-156,-531
0.6263855,-0.06517639,-0.017149659,-155,-594
0.6405318,-0.073735654,-0.017557984,-155,-656
0.6694382,-0.0844574,-0.018354034,-155,-719
0.6338281,-0.08701172,-0.017402343,-155,-781
0.603168,-0.08952301,-0.016567994,-155,-844
0.5873555,-0.09373138,-0.016160583,-155,-906
0.6158447,-0.1051712,-0.01695633,-155,-969
0.62449676,-0.11367523,-0.017227631,-155,-1031
0.6281445,-0.12142578,-0.01734375,-155,-1094
0.62188065,-0.12725967,-0.017188873,-155,-1156
0.63021743,-0.13613342,-0.017459564,-155,-1218
0.5994598,-0.13635178,-0.016628724,-154,-1281
0.539604,-0.12894332,-0.014989471,-154,-1343
0.5430127,-0.13603516,-0.015107422,-154,-1406
0.5608484,-0.14701782,-0.015646972,-154,-1468
0.56402296,-0.15442657,-0.015764007,-154,-1531
0.55750304,-0.15919556,-0.015611572,-154,-1593
0.5605238,-0.16669144,-0.015728302,-154,-1656
0.5825604,-0.18018158,-0.016381836,-153,-1718
0.5567569,-0.17886704,-0.015692597,-153,-1781
0.52158356,-0.17387238,-0.014736938,-153,-1843
0.50548095,-0.1746489,-0.014318695,-153,-1906
0.52710205,-0.18851806,-0.014953613,-153,-1967
0.53908,-0.19946365,-0.0153366085,-152,-2030
0.53686905,-0.20532456,-0.015319061,-152,-2092
0.5346054,-0.21115036,-0.0153015135,-152,-2155
0.52764314,-0.21508941,-0.015151062,-152,-2217
0.516062,-0.21695557,-0.014868164,-152,-2280
0.48613524,-0.21063812,-0.014039307,-151,-2342
0.47925797,-0.21389008,-0.013890838,-151,-2405
0.49051207,-0.22535706,-0.014271241,-151,-2467
0.49706116,-0.23496857,-0.0145019535,-151,-2530
0.5214478,-0.2535022,-0.015275269,-150,-2592
0.52312225,-0.26140046,-0.015371246,-150,-2655
0.5113373,-0.26252976,-0.015090942,-150,-2717
0.49959946,-0.26342988,-0.014794006,-150,-2780
0.47032914,-0.25460175,-0.013992157,-149,-2842
0.4587822,-0.25485763,-0.013698578,-149,-2905
0.4820343,-0.27470535,-0.014464417,-149,-2967
0.48331788,-0.28247803,-0.014560547,-148,-3030
0.48447785,-0.29031083,-0.014656067,-148,-3093
0.481288,-0.295587,-0.014638824,-148,-3155
0.47802916,-0.30084595,-0.014604339,-148,-3218
0.47470137,-0.30605316,-0.014569854,-147,-3281
0.43795395,-0.2891922,-0.0135063175,-147,-3343
0.43476564,-0.29396668,-0.013490295,-147,-3406
0.45207825,-0.31293336,-0.014099121,-146,-3469
0.46087295,-0.32651994,-0.014449158,-146,-3531
0.47750244,-0.3462253,-0.01505249,-146,-3594
0.469671,-0.34845063,-0.014889222,-145,-3657
0.4459082,-0.33846435,-0.01421875,-145,-3720
0.44218263,-0.34331787,-0.01418457,-145,-3782
0.42274842,-0.33570373,-0.013645019,-144,-3845
0.4112805,-0.33401582,-0.013359985,-144,-3908
0.4152832,-0.3448993,-0.013579101,-144,-3971
0.41911316,-0.35588533,-0.013796997,-143,-4033
0.42273438,-0.3670044,-0.014013672,-143,-4096
0.4373932,-0.38820878,-0.014585724,-142,-4159
0.4183014,-0.3795404,-0.014052582,-142,-4221
0.41412872,-0.38409242,-0.014018097,-142,-4284
0.38451204,-0.36453673,-0.01311737,-141,-4347
0.3805008,-0.3687097,-0.013068847,-141,-4409
0.39064637,-0.38692015,-0.013528442,-140,-4472
0.38991258,-0.39472276,-0.013617554,-140,-4535
0.3890503,-0.40256837,-0.013688965,-140,-4597
0.40179473,-0.4249498,-0.014264374,-139,-4660
0.39034653,-0.42198485,-0.013967896,-139,-4723
0.39577606,-0.43733245,-0.014296264,-138,-4785
0.34791183,-0.39296493,-0.012673187,-138,-4847
0.0,-0.0,-0.0,0,0
0.0,-0.0,-0.0,0,0
0.0,-0.0,-0.0,0,0
0.0,-0.0,-0.0,0,0
0.0,-0.0,-0.0,0,0
0.37658614,-0.4860054,-0.014545441,-135,-5222
0.3833293,-0.5060156,-0.014979706,-135,-5285
0.33020875,-0.4458902,-0.013041687,-134,-5347
0.34291625,-0.4737593,-0.013693085,-134,-5410
0.35217226,-0.49785888,-0.014222412,-133,-5472
0.35526276,-0.5140114,-0.014514923,-133,-5534
0.35243317,-0.5219879,-0.0145733645,-132,-5597
0.34949416,-0.52996767,-0.0146308895,-132,-5659
0.34099364,-0.52954376,-0.014477234,-131,-5722
0.3352066,-0.5332352,-0.014419556,-131,-5784
0.33199525,-0.5411104,-0.014475861,-130,-5846
0.38768402,-0.64763,-0.017142333,-130,-5909
0.4083371,-0.69930726,-0.018316956,-129,-5971
0.67816436,1.1614006,-0.018224487,-77,5971
0.65995073,1.1024537,-0.017489929,-77,5909
0.6771797,1.1036824,-0.017705077,-78,5846
0.7210843,1.1470442,-0.018608093,-78,5784
0.76601213,1.1895881,-0.019518433,-79,5722
0.80094266,1.2145573,-0.020114593,-79,5659
0.85325164,1.2637749,-0.021175385,-79,5597
0.89256376,1.2913883,-0.021896057,-79,5534
0.91815126,1.2979404,-0.022272034,-80,5472
0.9995958,1.3809938,-0.023934936,-80,5410
1.0621861,1.4343517,-0.02516693,-80,5347
1.12305,1.4824713,-0.02633789,-81,5285
0.0,0.0,-0.0,0,0
0.0,0.0,-0.0,0,0
0.0,0.0,-0.0,0,0
1.5151062,1.8286514,-0.034065247,-82,5035
1.5995957,1.8882751,-0.035650633,-82,4973
1.6921463,1.9538965,-0.037313994,-82,4910
1.8326732,2.0700371,-0.040081024,-83,4848
1.9893043,2.1981428,-0.043070678,-83,4785
2.1455946,2.3194678,-0.04609619,-83,4723
2.311589,2.4448829,-0.0491893,-83,4660
2.7342534,2.829242,-0.057761688,-84,4597
2.8352623,2.8703568,-0.059352722,-84,4535
2.8985083,2.8708668,-0.06026367,-84,4472
2.954768,2.8633459,-0.06090622,-84,4409
3.0076802,2.8514585,-0.06160324,-85,4347
3.0644574,2.8421142,-0.062250976,-85,4284
3.1138406,2.8252344,-0.06275162,-85,4221
3.1371605,2.784334,-0.06285843,-85,4159
3.1673734,2.7498963,-0.06298645,-86,4096
3.1554108,2.6794775,-0.062286988,-86,4033
3.3998444,2.823604,-0.06663452,-86,3970
3.593591,2.9184768,-0.07008301,-86,3908
3.6332128,2.8852735,-0.07037598,-86,3845
3.103774,2.4099555,-0.059727173,-87,3782
3.1300397,2.3757741,-0.059847105,-87,3719
3.5573301,2.6392353,-0.06773163,-87,3657
3.4564743,2.5062532,-0.06541565,-87,3594
3.4021235,2.4103994,-0.064010926,-87,3531
3.3707886,2.3332763,-0.06306152,-88,3469
3.2221186,2.178628,-0.059950255,-88,3406
3.2373986,2.1377418,-0.05991455,-88,3343
3.2185886,2.0751288,-0.05925934,-88,3281
3.194603,2.0104225,-0.058523558,-88,3218
3.2291567,1.9832498,-0.058871765,-89,3155
3.259131,1.9529969,-0.059143066,-89,3093
3.3364642,1.9500747,-0.060272675,-89,3030
3.340203,1.9036082,-0.060078125,-89,2967
3.356367,1.8645703,-0.06011719,-89,2905
3.3853164,1.8325332,-0.060391236,-89,2842
3.422862,1.8048505,-0.06082306,-90,2780
3.4823763,1.7878436,-0.06164978,-90,2717
3.6804938,1.8392422,-0.06492478,-90,2655
3.7632816,1.8295326,-0.066156924,-90,2592
3.9005926,1.8438302,-0.06834366,-90,2530
3.9204767,1.8012966,-0.06834366,-90,2467
3.6841786,1.6442674,-0.06403198,-90,2405
4.1652226,1.8047497,-0.07218445,-91,2342
4.267575,1.7941815,-0.07375672,-91,2280
4.300821,1.7532153,-0.07413742,-91,2217
4.3382735,1.7134992,-0.07445663,-91,2155
4.3566384,1.6660918,-0.074599,-91,2092
4.4167747,1.6341549,-0.07546234,-91,2030
4.4390182,1.5876864,-0.07554245,-91,1968
4.451272,1.5375632,-0.07560608,-91,1905
4.292315,1.4304955,-0.07277451,-92,1843
4.3266826,1.3897979,-0.07309616,-92,1780
4.561227,1.4104378,-0.07694092,-92,1718
4.633886,1.3778452,-0.07805527,-92,1655
4.648641,1.3272346,-0.07805527,-92,1593
1.1331536,0.3102089,-0.019004822,-92,1531
1.0977647,0.28769866,-0.018357849,-92,1468
1.0232548,0.2562805,-0.0170961,-92,1406
0.9822287,0.23465362,-0.016366882,-92,1343
0.9798505,0.22284943,-0.016316528,-93,1281
0.92357254,0.19948013,-0.015342407,-93,1218
0.9110129,0.1864087,-0.015127258,-93,1156
0.8884289,0.17170364,-0.014720611,-93,1093
0.89025176,0.16200958,-0.014720611,-93,1031
0.86732423,0.14808105,-0.014340821,-93,968
0.8491345,0.13547729,-0.014014892,-93,906
0.83574235,0.12401138,-0.013770447,-93,844
0.84198457,0.11556244,-0.013877869,-93,781
0.7886435,0.099496305,-0.012979889,-93,719
0.77975357,0.0897403,-0.01281662,-93,656
0.77571535,0.08071838,-0.012734985,-93,594
0.77157056,0.07178116,-0.012677002,-93,531
0.7573559,0.06213501,-0.01243164,-93,469
0.7180884,0.051020507,-0.011777344,-93,406
0.75354844,0.045298155,-0.012349853,-93,344
0.6990601,0.03437195,-0.011450196,-93,281
0.6894104,0.026342468,-0.011286621,-93,218
0.71462905,0.019507142,-0.011695556,-93,156
0.71980226,0.011777344,-0.011777344,-93,93
0.7198901,0.0039331056,-0.011777344,-93,31
0.6998932,-0.0038238526,-0.011450196,-93,-31
0.68481183,-0.011204834,-0.011204834,-93,-93
0.6996368,-0.0190979,-0.011450196,-93,-156
0.7093933,-0.027106019,-0.011613769,-93,-218
0.7090466,-0.034862977,-0.011613769,-93,-281
0.618808,-0.037198488,-0.010141602,-93,-344
0.60339373,-0.0428714,-0.00989624,-93,-406
0.6278082,-0.051506653,-0.010305176,-93,-469
0.6272122,-0.058351137,-0.010305176,-93,-531
0.63151187,-0.06571304,-0.010367584,-93,-594
0.6456558,-0.07430725,-0.010612488,-93,-656
0.669603,-0.084478,-0.01102066,-93,-719
0.629012,-0.08633194,-0.010367584,-93,-781
0.6181526,-0.091724396,-0.010185242,-93,-844
0.58748263,-0.09373138,-0.00969635,-93,-906
0.6110693,-0.10432983,-0.010103759,-93,-968
0.6197333,-0.112780154,-0.010247498,-93,-1031
0.6233728,-0.12047714,-0.0103288265,-93,-1093
0.6220357,-0.12727906,-0.0103288265,-93,-1156
0.6303749,-0.1361531,-0.010471802,-93,-1218
0.60448486,-0.13747925,-0.010065918,-93,-1281
0.5494646,-0.13126664,-0.009155732,-92,-1343
0.5431494,-0.13603516,-0.009074707,-92,-1406
0.55130035,-0.14448303,-0.009219361,-92,-1468
0.5545219,-0.15180436,-0.009300232,-92,-1531
0.5720665,-0.16333084,-0.00960556,-92,-1593
0.5702507,-0.16955902,-0.00960556,-92,-1655
0.592243,-0.18313538,-0.009990234,-92,-1718
0.5616596,-0.18041381,-0.00948883,-92,-1780
0.52171785,-0.17387238,-0.00884552,-92,-1843
0.52451295,-0.18117782,-0.008908996,-91,-1905
0.5413437,-0.1936203,-0.009212494,-91,-1968
0.53920287,-0.19949874,-0.009212494,-91,-2030
0.5369919,-0.20535965,-0.009194946,-91,-2092
0.5347282,-0.21120301,-0.009177399,-91,-2155
0.5509125,-0.22457764,-0.0094966125,-91,-2217
0.51616454,-0.21700683,-0.008920899,-91,-2280
0.48624846,-0.21068664,-0.008426819,-91,-2342
0.47935408,-0.21393815,-0.008331299,-90,-2405
0.4951703,-0.22751023,-0.00863205,-90,-2467
0.49717864,-0.23501892,-0.008711243,-90,-2530
0.53054625,-0.25792694,-0.009326782,-90,-2592
0.52322936,-0.26147187,-0.009229889,-90,-2655
0.5114601,-0.2625824,-0.009054566,-90,-2717
0.49972016,-0.26349884,-0.0088798525,-90,-2780
0.4704271,-0.2546507,-0.0083920285,-89,-2842
0.45887834,-0.25492173,-0.008219147,-89,-2905
0.48213592,-0.2747731,-0.008671875,-89,-2967
0.4834204,-0.2825464,-0.00873291,-89,-3030
0.50602293,-0.30322847,-0.009182739,-89,-3093
0.49417174,-0.30350524,-0.009009399,-89,-3155
0.47813264,-0.3008977,-0.008759155,-88,-3218
0.47480485,-0.30612212,-0.008741912,-88,-3281
0.44639388,-0.29476592,-0.008261413,-88,-3343
0.44728637,-0.30243164,-0.008322144,-88,-3406
0.44806823,-0.31015503,-0.008382568,-88,-3469
0.46095917,-0.3265889,-0.008672943,-87,-3531
0.48163986,-0.34923202,-0.0091152955,-87,-3594
0.4777904,-0.35447967,-0.0090971375,-87,-3657
0.45397523,-0.34457794,-0.0086801145,-87,-3719
0.44621688,-0.34646943,-0.008586731,-87,-3782
0.41891572,-0.332677,-0.008114471,-86,-3845
0.4230037,-0.3435356,-0.008249512,-86,-3908
0.42690355,-0.3545476,-0.008367005,-86,-3970
0.4153862,-0.35273317,-0.008199615,-86,-4033
0.42281982,-0.36708984,-0.008408203,-86,-4096
0.4337433,-0.38496155,-0.008690796,-85,-4159
0.42949525,-0.3896875,-0.008655395,-85,-4221
0.41421494,-0.38416138,-0.008414307,-85,-4284
0.3845767,-0.36460143,-0.007876892,-85,-4347
0.38415572,-0.37226975,-0.007918549,-84,-4409
0.39428237,-0.3905223,-0.008197632,-84,-4472
0.38998032,-0.39480743,-0.008163758,-84,-4535
0.39954147,-0.41342163,-0.0084404,-84,-4597
0.4121704,-0.4359375,-0.008770752,-83,-4660
0.40739137,-0.44040528,-0.008752441,-83,-4723
0.405912,-0.44852492,-0.0087884525,-83,-4785
0.36786026,-0.41550475,-0.0080451965,-83,-4848
0.0,-0.0,-0.0,0,0
0.0,-0.0,-0.0,0,0
0.0,-0.0,-0.0,0,0
0.0,-0.0,-0.0,0,0
0.0,-0.0,-0.0,0,0
0.0,-0.0,-0.0,0,0
0.38340682,-0.5061125,-0.0089917,-81,-5285
0.36596328,-0.4941884,-0.00867096,-80,-5347
0.3459012,-0.47788057,-0.0082824705,-80,-5410
0.34647217,-0.48978883,-0.008404541,-80,-5472
0.35816252,-0.5182004,-0.008786316,-79,-5534
0.35249084,-0.52208406,-0.008747864,-79,-5597
0.34679994,-0.5258908,-0.008709412,-79,-5659
0.34105134,-0.5296399,-0.008690186,-79,-5722
0.3379251,-0.5375447,-0.008720398,-78,-5784
0.33205336,-0.5411879,-0.008681641,-78,-5846
0.38775313,-0.6477452,-0.010276184,-77,-5909
0.41849548,-0.71670073,-0.011246338,-77,-5971
0.673163,1.1528472,-0.006029663,-25,5971
0.670302,1.1196922,-0.0059339907,-26,5909
0.6876782,1.1208481,-0.0059794616,-26,5846
0.7158037,1.138661,-0.0061569214,-26,5784
0.7552277,1.1728592,-0.0064283754,-26,5722
0.7927295,1.202124,-0.0066357423,-26,5659
0.84495115,1.2514365,-0.0070043947,-26,5597
0.884131,1.2791924,-0.007213135,-26,5534
0.91531235,1.2939556,-0.0074006654,-26,5472
0.9791782,1.3527979,-0.007797546,-26,5410
1.0533682,1.4224063,-0.008318481,-26,5347
1.0778747,1.4228032,-0.008443451,-27,5285
0.0,0.0,-0.0,0,0
0.0,0.0,-0.0,0,0
0.0,0.0,-0.0,0,0
1.5312011,1.8480469,-0.011499023,-27,5035
1.6579193,1.9571745,-0.012289581,-27,4973
1.6890308,1.9502747,-0.012440186,-27,4910
1.8262132,2.0627189,-0.013283997,-27,4848
2.0230348,2.235487,-0.0146296695,-27,4785
2.1423922,2.3159902,-0.01530899,-27,4722
2.3083594,2.4414551,-0.01640625,-27,4660
2.7761886,2.8726254,-0.019506836,-27,4597
2.8004937,2.8350317,-0.019579621,-28,4535
2.8809953,2.853523,-0.019923553,-28,4472
2.9012842,2.811405,-0.019973144,-28,4409
2.9754028,2.820752,-0.020269776,-28,4347
3.0317192,2.8118958,-0.020569,-28,4284
3.1216314,2.8322103,-0.020966949,-28,4221
3.148635,2.7945468,-0.021070557,-28,4159
3.163982,2.7468743,-0.020970458,-28,4096
3.189964,2.7088578,-0.020945435,-28,4033
3.4079418,2.8302627,-0.022306824,-28,3970
3.4969842,2.8400967,-0.02268448,-28,3908
3.5357487,2.8078208,-0.02287262,-29,3845
3.076489,2.3887305,-0.01973175,-29,3782
3.0984192,2.3518307,-0.01970642,-29,3720
3.5336425,2.621631,-0.022424316,-29,3657
3.5297265,2.5593445,-0.022220459,-29,3594
3.4800203,2.465573,-0.021866456,-29,3531
3.3629415,2.327835,-0.020969238,-29,3469
3.3135986,2.2404785,-0.020507812,-29,3406
3.2377539,2.1379786,-0.020010985,-29,3343
3.214737,2.0726533,-0.019727325,-29,3281
3.1949487,2.010653,-0.019469451,-29,3218
3.3658416,2.0672164,-0.020492554,-29,3155
3.6669135,2.1973825,-0.02217865,-29,3093
3.8030229,2.2227988,-0.022853088,-29,3030
3.8183978,2.1761742,-0.022935333,-29,2967
3.3436065,1.8575203,-0.019960785,-29,2905
3.3329053,1.8042057,-0.019778138,-29,2842
3.4585984,1.8236246,-0.020523682,-30,2780
4.0431747,2.07582,-0.023856811,-30,2717
4.0566993,2.0271041,-0.023804322,-30,2655
3.9616501,1.9258432,-0.023256378,-30,2592
3.9009876,1.8440937,-0.02278122,-30,2530
4.0526276,1.8619629,-0.023546753,-30,2467
3.6983688,1.6506271,-0.021382142,-30,2405
4.161051,1.803039,-0.024081117,-30,2342
4.3004045,1.8078868,-0.024771424,-30,2280
4.315136,1.7590191,-0.024744874,-30,2217
4.3526516,1.7191516,-0.024851074,-30,2155
4.403909,1.6842369,-0.025180817,-30,2092
4.4172063,1.6344424,-0.025154114,-30,2030
4.4443016,1.5895141,-0.02520752,-30,1967
4.451847,1.5377069,-0.025154114,-30,1905
4.3023543,1.4337952,-0.02435791,-30,1843
4.327237,1.3899367,-0.02441162,-30,1780
4.5856934,1.4179688,-0.02578125,-30,1718
4.634476,1.3779927,-0.025969239,-30,1655
4.6540394,1.3287549,-0.025996095,-30,1593
2.98033,0.8158777,-0.016690979,-30,1530
2.9793322,0.78080934,-0.016636962,-30,1468
1.1155365,0.27939302,-0.006211853,-30,1406
1.0796145,0.25792053,-0.0059957886,-30,1343
1.0092261,0.22953324,-0.005590668,-30,1281
0.9627858,0.2079538,-0.005320587,-30,1218
0.93069154,0.19041748,-0.0051605226,-31,1156
0.9229028,0.1783728,-0.0051062014,-31,1093
0.9002005,0.16382767,-0.004970398,-31,1031
0.8970032,0.15315704,-0.004943237,-31,968
0.89367646,0.14256622,-0.0049160765,-31,906
0.84079134,0.124745175,-0.0046173097,-31,843
0.84208834,0.11556244,-0.0046173097,-31,781
0.8036224,0.1013736,-0.004400024,-31,718
0.769915,0.088597104,-0.0042099,-31,656
0.7807837,0.08123581,-0.004264221,-31,593
0.7816222,0.07270737,-0.0042881775,-31,531
0.77239835,0.06336136,-0.004233551,-31,468
0.75807494,0.05385498,-0.004151611,-31,406
0.7536406,0.045298155,-0.004124298,-31,343
0.7141272,0.03510849,-0.0039057923,-31,281
0.66451293,0.02538803,-0.00363266,-31,218
0.7147163,0.019507142,-0.0039057923,-31,156
0.73488784,0.012022705,-0.0040150452,-31,93
0.73497754,0.0040150452,-0.0040150452,-31,31
0.71997803,-0.0039331056,-0.0039331056,-31,-31
0.6998932,-0.011450196,-0.0038238526,-31,-93
0.67973024,-0.018552246,-0.0037145996,-31,-156
0.71447635,-0.027296906,-0.0039057923,-31,-218
0.7141272,-0.03510849,-0.0039057923,-31,-281
0.62387466,-0.037498474,-0.003414154,-31,-343
0.61842954,-0.043934327,-0.003386841,-31,-406
0.6428348,-0.052733,-0.003523407,-31,-468
0.6372461,-0.059277344,-0.0034960937,-31,-531
0.6365625,-0.06623047,-0.0034765624,-31,-593
0.63083357,-0.07259247,-0.0034494018,-31,-656
0.65480345,-0.082600705,-0.0035852052,-31,-718
0.62908953,-0.08633194,-0.0034494018,-31,-781
0.6033914,-0.08952301,-0.0033135987,-31,-843
0.607305,-0.096882015,-0.0033407593,-31,-906
0.6160736,-0.10519028,-0.0033950806,-31,-968
0.61489105,-0.111904144,-0.0033950806,-31,-1031
0.6332684,-0.12239411,-0.003503723,-31,-1093
0.63189054,-0.12928344,-0.003503723,-31,-1156
0.6255664,-0.13511719,-0.0034570312,-30,-1218
0.619187,-0.14082474,-0.003430023,-30,-1281
0.54953355,-0.13128388,-0.0030519103,-30,-1343
0.5432178,-0.13605225,-0.0030249024,-30,-1406
0.56587964,-0.14830308,-0.0031599426,-30,-1468
0.5738823,-0.15710266,-0.0032139588,-30,-1530
0.57213914,-0.163349,-0.0031958008,-30,-1593
0.575116,-0.1710022,-0.0032226562,-30,-1655
0.58754194,-0.18167725,-0.0033032226,-30,-1718
0.57125247,-0.18349,-0.0032226562,-30,-1780
0.5265285,-0.17546996,-0.002980957,-30,-1843
0.52930665,-0.18282714,-0.0029907227,-30,-1905
0.5414139,-0.19363785,-0.0030708313,-30,-1967
0.5486339,-0.203004,-0.003124237,-30,-2030
0.5464023,-0.20896682,-0.003124237,-30,-2092
0.53478086,-0.21122055,-0.0030532838,-30,-2155
0.541707,-0.22082108,-0.0031063843,-30,-2217
0.5346698,-0.22477478,-0.003079834,-30,-2280
0.50006014,-0.21668273,-0.002893982,-30,-2342
0.48854995,-0.2180458,-0.0028245545,-30,-2405
0.4997635,-0.22961426,-0.0029037476,-30,-2467
0.5017493,-0.23718934,-0.0029301452,-30,-2530
0.517128,-0.25138703,-0.003035736,-30,-2592
0.5098828,-0.25478485,-0.0029919434,-30,-2655
0.51151276,-0.2626175,-0.0030181885,-30,-2717
0.5041946,-0.26584807,-0.0029919434,-30,-2780
0.47047606,-0.25468338,-0.0027919007,-29,-2842
0.47203857,-0.26223814,-0.002817993,-29,-2905
0.48218673,-0.27480698,-0.0028962707,-29,-2967
0.4834717,-0.28258055,-0.0029052733,-29,-3030
0.4932106,-0.29555434,-0.0029830933,-29,-3093
0.4899643,-0.3009239,-0.0029830933,-29,-3155
0.48664778,-0.30625838,-0.0029655457,-29,-3218
0.47485656,-0.3061566,-0.002913971,-29,-3281
0.44644287,-0.29479858,-0.0027592469,-29,-3343
0.4556198,-0.3080658,-0.0028198243,-29,-3406
0.46045166,-0.3187256,-0.0028710938,-29,-3469
0.4610109,-0.32662338,-0.0028967285,-29,-3531
0.4695508,-0.34046325,-0.0029559326,-29,-3594
0.46981385,-0.34855774,-0.0029814148,-29,-3657
0.4619751,-0.35065857,-0.0029382324,-29,-3720
0.44626862,-0.3465039,-0.0028622437,-29,-3782
0.4267958,-0.33892852,-0.0027609253,-29,-3845
0.4230536,-0.34358552,-0.0027442933,-28,-3908
0.42695436,-0.35458145,-0.0027946471,-28,-3970
0.41923064,-0.3560028,-0.0027526855,-28,-4033
0.42287108,-0.36712402,-0.0028027343,-28,-4096
0.4449971,-0.39495376,-0.0029779053,-28,-4159
0.44065735,-0.39980194,-0.0029597473,-28,-4221
0.4252472,-0.39441344,-0.0028851319,-28,-4284
0.38825378,-0.36807373,-0.0026449584,-28,-4347
0.38420472,-0.3723024,-0.0026449584,-28,-4409
0.39786866,-0.3940747,-0.002751465,-28,-4472
0.3935449,-0.39839843,-0.002751465,-28,-4535
0.39957657,-0.41345674,-0.0028076172,-27,-4597
0.42938232,-0.4541397,-0.0030517578,-27,-4660
0.4176137,-0.45145294,-0.0029841615,-27,-4722
0.4093039,-0.45228758,-0.0029598998,-27,-4785
0.0,-0.0,-0.0,0,0
0.0,-0.0,-0.0,0,0
0.0,-0.0,-0.0,0,0
0.0,-0.0,-0.0,0,0
0.0,-0.0,-0.0,0,0
0.0,-0.0,-0.0,0,0
0.0,-0.0,-0.0,0,0
0.0,-0.0,-0.0,0,0
0.36600083,-0.49422592,-0.0028903198,-26,-5347
0.34300554,-0.47388428,-0.0027314757,-26,-5410
0.34649047,-0.48982543,-0.0028015138,-26,-5472
0.35251525,-0.51003176,-0.0028759765,-26,-5534
0.3525293,-0.5221225,-0.0029223633,-26,-5597
0.34406662,-0.5217552,-0.0028800964,-26,-5659
0.33836365,-0.52547455,-0.0028800964,-26,-5722
0.33794448,-0.5375835,-0.0029067993,-26,-5784
0.3346875,-0.5455078,-0.0029101563,-26,-5846
0.40064025,-0.6692413,-0.003546753,-26,-5909
0.0,-0.0,-0.0,0,0
0.67820543,1.1614827,0.006074829,25,5971
0.6754384,1.1282723,0.0059794616,26,5909
0.6850635,1.1165863,0.005956726,26,5846
0.7104817,1.1301951,0.006111145,26,5784
0.7579346,1.177063,0.006451416,26,5722
0.7872244,1.1937759,0.0065896604,26,5659
0.83935547,1.2431488,0.006958008,26,5597
0.87844527,1.2709662,0.007166748,26,5534
0.9181998,1.2980374,0.0074240114,26,5472
0.9791782,1.3527979,0.007797546,26,5410
1.0503926,1.4183882,0.008294983,26,5347
1.105048,1.4586722,0.008656311,27,5285
0.0,0.0,0.0,0,0
0.0,0.0,0.0,0,0
0.0,0.0,0.0,0,0
1.5248212,1.8403467,0.011451111,27,5035
1.5997467,1.8885018,0.011858368,27,4973
1.6661175,1.9238174,0.012271423,27,4910
1.7831265,2.0140522,0.012970581,27,4848
1.942516,2.1465125,0.014047394,27,4785
2.1220207,2.2939682,0.015163422,27,4722
2.2637036,2.3942246,0.016088868,27,4660
2.4739,2.5598364,0.017382812,27,4597
2.8180628,2.8528173,0.019702453,28,4535
3.1190062,3.0892642,0.021569518,28,4472
3.1346796,3.03757,0.021579895,28,4409
3.0189452,2.8620312,0.020566406,28,4347
3.0610466,2.8390968,0.020767976,28,4284
3.2734547,2.9699574,0.021986695,28,4221
3.2982137,2.9273043,0.022071533,28,4159
3.2319434,2.8058765,0.021420898,28,4096
3.2776215,2.7832947,0.021520996,28,4033
3.3925562,2.817485,0.022206116,28,3970
3.427122,2.7833579,0.022231292,28,3908
3.4770155,2.7611792,0.022492675,29,3845
3.0409455,2.3611329,0.019503783,29,3782
3.0705414,2.3306704,0.019529114,29,3720
3.5336425,2.621631,0.022424316,29,3657
3.5540137,2.5769546,0.022373352,29,3594
3.500419,2.4800253,0.021994628,29,3531
3.6671686,2.5384216,0.022866212,29,3469
3.6739526,2.4841306,0.022738038,29,3406
3.7175758,2.454818,0.022976533,29,3343
3.7526276,2.41945,0.023028107,29,3281
3.7873893,2.3834891,0.023079682,29,3218
3.825982,2.3498232,0.023294067,29,3155
3.859909,2.313034,0.023345947,29,3093
3.8418732,2.2455063,0.023086548,29,3030
3.8227417,2.17865,0.022961427,29,2967
3.2911577,1.8283827,0.019647675,29,2905
3.3329053,1.8042057,0.019778138,29,2842
3.3347611,1.7583286,0.019788818,30,2780
3.8430176,1.9730567,0.02267578,30,2717
4.0253906,2.0114594,0.023620605,30,2655
3.9751403,1.9324012,0.02333557,30,2592
3.8964672,1.8419567,0.022754822,30,2530
4.116234,1.8911865,0.02391632,30,2467
3.6938028,1.6485894,0.021355743,30,2405
4.0692964,1.7632806,0.02355011,30,2342
4.2819676,1.800136,0.024665222,30,2280
4.319766,1.7609066,0.024771424,30,2217
4.3712525,1.7264984,0.024957275,30,2155
4.399239,1.6824509,0.025154114,30,2092
4.4218955,1.6361775,0.025180817,30,2030
4.4678416,1.5979332,0.025341034,30,1967
4.4896545,1.550766,0.025367737,30,1905
4.2881236,1.4290527,0.024277344,30,1843
4.3177166,1.3868785,0.02435791,30,1780
4.571363,1.4135376,0.025700683,30,1718
4.639269,1.3794178,0.025996095,30,1655
4.6684628,1.3328729,0.02607666,30,1593
2.9706848,0.8132373,0.016636962,30,1530
2.9358032,0.7694014,0.01639389,30,1468
2.9246457,0.73249555,0.016285859,30,1406
2.903288,0.6935971,0.016123809,30,1343
1.1311133,0.25725463,0.0062658694,30,1281
1.0360943,0.22378784,0.005725708,30,1218
0.98457366,0.20144165,0.0054592895,31,1156
0.9572662,0.18501434,0.005296326,31,1093
0.9149579,0.16651337,0.0050518797,31,1031
0.91178894,0.15568161,0.005024719,31,968
0.90355134,0.14414154,0.004970398,31,906
0.880358,0.13061553,0.0048345947,31,843
0.8470418,0.116242215,0.0046444703,31,781
0.823465,0.10387665,0.004508667,31,718
0.80965257,0.09316986,0.0044271853,31,656
0.79073,0.08227066,0.0043185423,31,593
0.78660065,0.07317047,0.004315491,31,531
0.7624319,0.062543795,0.0041789245,31,468
0.7481003,0.053146362,0.004096985,31,406
0.7386676,0.044398192,0.0040423586,31,343
0.7341028,0.036090545,0.0040150452,31,281
0.6894946,0.026342468,0.0037692261,31,218
0.71971434,0.019643554,0.0039331056,31,156
0.74488634,0.0121862795,0.0040696715,31,93
0.7399774,0.0040423586,0.0040423586,31,31
0.71997803,-0.0039331056,0.0039331056,31,-31
0.7048924,-0.011531983,0.0038511658,31,-93
0.6697342,-0.018279418,0.0036599732,31,-156
0.7044836,-0.026915131,0.0038511658,31,-218
0.6841638,-0.033635408,0.0037419128,31,-281
0.64383864,-0.038698424,0.003523407,31,-343
0.61842954,-0.043934327,0.003386841,31,-406
0.64781797,-0.053141784,0.0035507202,31,-468
0.6472031,-0.060203552,0.0035507202,31,-531
0.64153564,-0.0667479,0.003503723,31,-593
0.640768,-0.073735654,0.003503723,31,-656
0.6647247,-0.08385223,0.0036395264,31,-718
0.62908953,-0.08633194,0.0034494018,31,-781
0.6083372,-0.0902568,0.0033407593,31,-843
0.607305,-0.096882015,0.0033407593,31,-906
0.611145,-0.10434876,0.00336792,31,-968
0.61489105,-0.111904144,0.0033950806,31,-1031
0.6283594,-0.12144531,0.0034765624,31,-1093
0.62699217,-0.12828125,0.0034765624,31,-1156
0.6451154,-0.1393396,0.0035650635,30,-1218
0.619187,-0.14082474,0.003430023,30,-1281
0.5543967,-0.13244568,0.0030789184,30,-1343
0.5529181,-0.13848175,0.0030789184,30,-1406
0.57071626,-0.14957061,0.0031869507,30,-1468
0.57870483,-0.15842286,0.0032409667,30,-1530
0.57213914,-0.163349,0.0031958008,30,-1593
0.5655307,-0.16815215,0.0031689452,30,-1655
0.60664904,-0.18758544,0.0034106446,30,-1718
0.57125247,-0.18349,0.0032226562,30,-1780
0.5265285,-0.17546996,0.002980957,30,-1843
0.52930665,-0.18282714,0.0029907227,30,-1905
0.54612184,-0.19532165,0.0030975342,30,-1967
0.5439447,-0.20126893,0.0030975342,30,-2030
0.53706205,-0.20539474,0.0030708313,30,-2092
0.5301306,-0.20938385,0.0030267334,30,-2155
0.550967,-0.2245958,0.0031594848,30,-2217
0.5300606,-0.22283706,0.0030532838,30,-2280
0.4908847,-0.21270691,0.0028408812,30,-2342
0.48854995,-0.2180458,0.0028245545,30,-2405
0.49067688,-0.22543946,0.002850952,30,-2467
0.49270874,-0.23291565,0.00287735,30,-2530
0.49914092,-0.24264313,0.0029301452,30,-2592
0.5098828,-0.25478485,0.0029919434,30,-2655
0.5159607,-0.26490113,0.0030444337,30,-2717
0.5041946,-0.26584807,0.0029919434,30,-2780
0.47047606,-0.25468338,0.0027919007,29,-2842
0.46766785,-0.25981003,0.0027919007,29,-2905
0.47784272,-0.27233124,0.0028701783,29,-2967
0.4834717,-0.28258055,0.0029052733,29,-3030
0.4932106,-0.29555434,0.0029830933,29,-3093
0.49422485,-0.30354065,0.0030090332,29,-3155
0.4908795,-0.30892152,0.002991333,29,-3218
0.47905883,-0.30886596,0.0029397584,29,-3281
0.45061523,-0.29755372,0.0027850342,29,-3343
0.44319382,-0.299664,0.0027429198,29,-3406
0.45222932,-0.31303406,0.0028198243,29,-3469
0.46509063,-0.32951385,0.0029223633,29,-3531
0.46145508,-0.3345932,0.0029049683,29,-3594
0.46579835,-0.3455786,0.0029559326,29,-3657
0.45401,-0.34461272,0.0028875733,29,-3720
0.44626862,-0.3465039,0.0028622437,29,-3782
0.41504914,-0.32960021,0.0026849366,29,-3845
0.4114099,-0.33412904,0.002668762,28,-3908
0.42695436,-0.35458145,0.0027946471,28,-3970
0.42304185,-0.3592392,0.0027777099,28,-4033
0.42287108,-0.36712402,0.0028027343,28,-4096
0.44125763,-0.39163482,0.002952881,28,-4159
0.44065735,-0.39980194,0.0029597473,28,-4221
0.41791534,-0.3876132,0.0028353883,28,-4284
0.38825378,-0.36807373,0.0026449584,28,-4347
0.380614,-0.36882293,0.0026202393,28,-4409
0.39431626,-0.3905562,0.0027268983,28,-4472
0.39705873,-0.40195557,0.0027760314,28,-4535
0.39610198,-0.40986145,0.002783203,27,-4597
0.4225122,-0.4468735,0.0030029297,27,-4660
0.41421846,-0.4477826,0.0029598998,27,-4722
0.41265884,-0.45599487,0.0029841615,27,-4785
0.0,-0.0,0.0,0,0
0.0,-0.0,0.0,0,0
0.0,-0.0,0.0,0,0
0.0,-0.0,0.0,0,0
0.0,-0.0,0.0,0,0
0.0,-0.0,0.0,0,0
0.0,-0.0,0.0,0,0
0.0,-0.0,0.0,0,0
0.36302522,-0.49020782,0.0028668214,26,-5347
0.3459372,-0.47793457,0.0027548217,26,-5410
0.34071565,-0.48166168,0.0027548217,26,-5472
0.35251525,-0.51003176,0.0028759765,26,-5534
0.34973145,-0.51797867,0.00289917,26,-5597
0.33856156,-0.5134071,0.0028340148,26,-5659
0.33836365,-0.52547455,0.0028800964,26,-5722
0.33528352,-0.5333505,0.0028839111,26,-5784
0.33207276,-0.54124606,0.0028874206,26,-5846
0.36211717,-0.6048912,0.003205719,26,-5909
0.43112686,-0.7383403,0.0038616944,25,-5971
0.6731222,1.1527656,0.018088989,77,5971
0.65995073,1.1024537,0.017489929,77,5909
0.6719505,1.0951598,0.01756836,78,5846
0.7051193,1.1216484,0.018196106,78,5784
0.75518507,1.1727741,0.019242553,79,5722
0.7871808,1.1936886,0.019768981,79,5659
0.8392639,1.2430573,0.020828247,79,5597
0.878351,1.2708248,0.021547394,79,5534
0.9123767,1.2897773,0.022131957,80,5472
0.97614485,1.3485951,0.023373414,80,5410
1.0502849,1.4182805,0.024884949,80,5347
0.0,0.0,0.0,0,0
0.0,0.0,0.0,0,0
0.0,0.0,0.0,0,0
0.0,0.0,0.0,0,0
0.0,0.0,0.0,0,0
1.6028272,1.8920898,0.035722658,82,4973
1.6692352,1.9274414,0.036808778,82,4910
1.7829623,2.013888,0.038993835,83,4848
1.9222114,2.1240065,0.04161804,83,4785
2.081091,2.249737,0.044710387,83,4723
2.270372,2.401289,0.048312224,83,4660
2.477157,2.563214,0.052330475,84,4597
2.8387756,2.8739135,0.05942627,84,4535
3.1649153,3.1347332,0.06580261,84,4472
3.1845434,3.086012,0.06564255,84,4409
2.9931679,2.8377,0.061306,85,4347
3.0717885,2.8489137,0.0623999,85,4284
3.2730498,2.9696875,0.06596008,85,4221
3.301684,2.9303539,0.066154934,85,4159
3.2542026,2.8252807,0.064713135,86,4096
3.3307114,2.8283374,0.06574737,86,4033
3.4036903,2.8267982,0.0667099,86,3970
3.4228373,2.7798018,0.06675293,86,3908
3.4531183,2.7422533,0.06688751,86,3845
3.040593,2.3608978,0.058511354,87,3782
3.070306,2.330435,0.058704987,87,3719
3.5372548,2.624341,0.0673494,87,3657
3.5536118,2.5766866,0.06725403,87,3594
3.5000262,2.4797635,0.06585297,87,3531
3.6749816,2.5438404,0.06875244,88,3469
3.6942542,2.4978614,0.06873474,88,3406
3.7338555,2.4655654,0.06910248,88,3343
3.769026,2.4300137,0.06939377,88,3281
3.8039048,2.3938673,0.06968567,88,3218
3.8298311,2.3521657,0.06982285,89,3155
3.8552086,2.3101897,0.06996002,89,3093
3.880312,2.2679393,0.0700972,89,3030
3.9005232,2.2229393,0.07015625,89,2967
3.2908132,1.8281529,0.058943022,89,2905
3.3325584,1.8039743,0.059450075,89,2842
3.3919058,1.7885275,0.06027298,90,2780
3.9938364,2.050426,0.07070435,90,2717
4.002481,2.000148,0.070604704,90,2655
3.9880893,1.9388237,0.07010895,90,2592
3.8960726,1.8416938,0.06826446,90,2530
4.1476192,1.9056591,0.07230332,90,2467
3.6978745,1.6503799,0.06427002,90,2405
3.9817328,1.7252454,0.06900451,91,2342
4.276792,1.7980566,0.07391602,91,2280
4.31008,1.7569897,0.074297026,91,2217
4.370822,1.726355,0.07501526,91,2155
4.398664,1.6821634,0.075318605,91,2092
4.430841,1.6393592,0.07570267,91,2030
4.476677,1.6011558,0.07618332,91,1968
4.4938,1.5522532,0.07632843,91,1905
4.44883,1.4826572,0.07542816,92,1843
4.321923,1.3882691,0.07301575,92,1780
4.351076,1.3454542,0.073396,92,1718
4.5428376,1.3507727,0.076521605,92,1655
2.9612854,0.8454773,0.0497229,92,1593
2.965487,0.81182325,0.049736023,92,1531
2.9257607,0.766774,0.048927307,92,1468
2.919428,0.73118895,0.048776552,92,1406
2.8786108,0.68769777,0.04796631,92,1343
2.8956776,0.65856993,0.048218995,93,1281
2.9710693,0.64171386,0.04935547,93,1218
1.1559088,0.23651856,0.019193726,93,1156
1.0602247,0.204906,0.01756714,93,1093
0.99354064,0.18080628,0.016428528,93,1031
0.9954517,0.16995667,0.016459351,93,968
0.9824289,0.15674408,0.016214905,93,906
0.90992063,0.1350183,0.014992676,93,844
0.89151305,0.12236023,0.014694214,93,781
0.8531238,0.10763123,0.014041138,93,719
0.834386,0.09602783,0.013714599,93,656
0.8105231,0.084340364,0.013306427,93,594
0.7914821,0.073633574,0.01300415,93,531
0.77728635,0.063770145,0.012758789,93,469
0.75299543,0.05350067,0.012349853,93,406
0.7685196,0.04619812,0.012595215,93,344
0.7489929,0.036827087,0.012268066,93,281
0.7093933,0.027106019,0.011613769,93,218
0.7396161,0.020189209,0.012104493,93,156
0.75479263,0.012349853,0.012349853,93,93
0.74488634,0.0040696715,0.0121862795,93,31
0.73488784,-0.0040150452,0.012022705,93,-31
0.7048064,-0.011531983,0.011531983,93,-93
0.6796472,-0.018552246,0.011123047,93,-156
0.70439756,-0.026915131,0.011531983,93,-218
0.7140399,-0.03510849,0.011695556,93,-281
0.6587311,-0.03959839,0.010795899,93,-344
0.6233406,-0.044288635,0.010223389,93,-406
0.64773864,-0.053141784,0.010632324,93,-469
0.637168,-0.059277344,0.01046875,93,-531
0.6364844,-0.06623047,0.010449219,93,-594
0.64068925,-0.073735654,0.010530854,93,-656
0.6398428,-0.08072342,0.010530854,93,-719
0.629012,-0.08633194,0.010367584,93,-781
0.6132074,-0.0909906,0.010103759,93,-844
0.59735626,-0.0953067,0.009859314,93,-906
0.6110693,-0.10432983,0.010103759,93,-968
0.61481476,-0.11188507,0.010166168,93,-1031
0.6331897,-0.12237442,0.010491486,93,-1093
0.6367294,-0.13028565,0.010572815,93,-1156
0.64014816,-0.138264,0.010634155,93,-1218
0.6191095,-0.14080536,0.0103094485,93,-1281
0.5543271,-0.13242829,0.009236756,92,-1343
0.5576981,-0.13967896,0.00931778,92,-1406
0.5754802,-0.15082,0.009623718,92,-1468
0.5786316,-0.15840454,0.00970459,92,-1531
0.5816811,-0.1660759,0.009766999,92,-1593
0.57983476,-0.17240876,0.009766999,92,-1655
0.5826907,-0.18018158,0.009829101,92,-1718
0.5711792,-0.18347168,0.009649659,92,-1780
0.5406894,-0.180195,0.009167176,92,-1843
0.52451295,-0.18117782,0.008908996,91,-1905
0.5413437,-0.1936203,0.009212494,91,-1968
0.54858035,-0.2029683,0.009372711,91,-2030
0.55566984,-0.2125026,0.0095147705,91,-2092
0.54402786,-0.2148761,0.009337005,91,-2155
0.54628295,-0.22269043,0.009416809,91,-2217
0.5253818,-0.22088195,0.0090802,91,-2280
0.49083573,-0.21267426,0.008506317,91,-2342
0.48848465,-0.21801315,0.008489991,90,-2405
0.4951703,-0.22751023,0.00863205,90,-2467
0.50621825,-0.239292,0.008869629,90,-2530
0.50806546,-0.24699783,0.00893158,90,-2592
0.50981325,-0.25476745,0.008993225,90,-2655
0.5114601,-0.2625824,0.009054566,90,-2717
0.50414246,-0.2658307,0.008958435,90,-2780
0.46603057,-0.25227082,0.008313599,89,-2842
0.46761885,-0.25977737,0.0083757015,89,-2905
0.47779235,-0.27229768,0.00859375,89,-2967
0.47910416,-0.28002366,0.008654938,89,-3030
0.48886964,-0.29294953,0.00887146,89,-3093
0.48991165,-0.30088884,0.008931732,89,-3155
0.48236388,-0.3035605,0.00883667,88,-3218
0.48320848,-0.31154022,0.008896637,88,-3281
0.4589096,-0.3030304,0.008493042,88,-3343
0.4514279,-0.30523193,0.008399201,88,-3406
0.4604004,-0.3186914,0.008613281,88,-3469
0.46911773,-0.33236924,0.008826447,87,-3531
0.4654503,-0.33749312,0.008808899,87,-3594
0.46574524,-0.3455432,0.008867797,87,-3657
0.45795745,-0.34760055,0.008756256,87,-3719
0.43831924,-0.34033722,0.008434754,87,-3782
0.41891572,-0.332677,0.008114471,86,-3845
0.41912293,-0.34038392,0.008173828,86,-3908
0.4307495,-0.3577417,0.008442383,86,-3970
0.4344406,-0.36891356,0.008575745,86,-4033
0.42281982,-0.36708984,0.008408203,86,-4096
0.44496077,-0.39491746,0.0089155575,85,-4159
0.44060287,-0.3997656,0.0088792415,85,-4221
0.4252118,-0.39436036,0.008637696,85,-4284
0.39546096,-0.37492034,0.008099823,85,-4347
0.38415572,-0.37226975,0.007918549,84,-4409
0.39428237,-0.3905223,0.008197632,84,-4472
0.397007,-0.4019211,0.008310852,84,-4535
0.3960672,-0.40982667,0.008367005,84,-4597
0.42934418,-0.45410156,0.0091362,83,-4660
0.41757613,-0.45141542,0.0089712525,83,-4723
0.41597596,-0.4596454,0.0090063475,83,-4785
0.35129,-0.39678833,0.0076828003,83,-4848
0.0,-0.0,0.0,0,0
0.0,-0.0,0.0,0,0
0.0,-0.0,0.0,0,0
0.0,-0.0,0.0,0,0
0.4750667,-0.5995006,0.0109025575,81,-5160
0.0,-0.0,0.0,0,0
0.0,-0.0,0.0,0,0
0.36298797,-0.4901706,0.008600464,80,-5347
0.3371071,-0.46573105,0.008071899,80,-5410
0.34069765,-0.48162568,0.008264465,80,-5472
0.35247743,-0.50997496,0.0086468505,79,-5534
0.35249084,-0.52208406,0.008747864,79,-5597
0.3385428,-0.5133696,0.008502045,79,-5659
0.33834457,-0.5254364,0.008621216,79,-5722
0.3352643,-0.5333121,0.008651733,78,-5784
0.33728257,-0.5497105,0.008818359,78,-5846
0.3261235,-0.54479235,0.008642883,77,-5909
0.43866393,-0.75124055,0.01178833,77,-5971
0.68812364,1.1784623,0.030867463,129,5971
0.6572656,1.0979687,0.0290625,130,5909
0.69013184,1.1248279,0.030091552,130,5846
0.704998,1.1214867,0.030326843,131,5784
0.75235105,1.1683584,0.031941835,131,5722
0.7953056,1.2059894,0.033293914,132,5659
0.8391266,1.2428284,0.034698486,132,5597
0.87820953,1.2706361,0.03588089,133,5534
0.9121838,1.2895361,0.03683838,133,5472
0.9730615,1.3443427,0.03885559,134,5410
1.0471485,1.4139942,0.04135742,134,5347
0.0,0.0,0.0,0,0
0.0,0.0,0.0,0,0
0.0,0.0,0.0,0,0
0.0,0.0,0.0,0,0
0.0,0.0,0.0,0,0
0.0,0.0,0.0,0,0
1.668924,1.9270523,0.06139984,137,4910
1.7892609,2.0209625,0.06517639,138,4847
1.8346568,2.0272954,0.06627167,138,4785
2.0807166,2.2493627,0.074454956,139,4723
2.2699685,2.4007847,0.08058762,139,4660
2.309986,2.3902497,0.08127823,140,4597
2.8417952,2.8768532,0.099248655,140,4535
3.171338,3.1410882,0.109826356,140,4472
3.1911812,3.0922918,0.109605715,141,4409
2.9926643,2.8371964,0.10209274,141,4347
3.0711493,2.848402,0.10395721,142,4284
3.283481,2.9792242,0.110306546,142,4221
3.3122253,2.939769,0.11045258,142,4159
3.336582,2.8967133,0.11060791,143,4096
3.349095,2.8438473,0.11025055,143,4033
3.3722534,2.80071,0.11026733,144,3971
3.4066443,2.7666593,0.11066101,144,3908
3.425045,2.719822,0.11054993,144,3845
3.0400054,2.3603103,0.09751892,145,3782
3.0696,2.3299644,0.09788086,145,3720
3.5365827,2.6238034,0.11211456,145,3657
3.5610352,2.582019,0.11225586,146,3594
3.5809422,2.537031,0.11226868,146,3531
3.6947122,2.557519,0.11522827,146,3469
3.722422,2.5169146,0.115502626,147,3406
3.737207,2.4677734,0.1152539,147,3343
3.7850084,2.4403,0.11617203,147,3281
3.8030818,2.3934557,0.116188504,148,3218
3.8332672,2.3542328,0.11659241,148,3155
3.8672478,2.3173482,0.116989136,148,3093
3.9010656,2.2800012,0.117524415,148,3030
3.9214141,2.234765,0.117669985,149,2967
3.2595382,1.8107028,0.09732513,149,2905
3.2966995,1.7845917,0.09807587,149,2842
3.302662,1.7414346,0.09779754,150,2780
3.9928772,2.050015,0.11784057,150,2717
4.010604,2.00407,0.11784622,150,2655
4.000763,1.9449737,0.117198184,150,2592
3.9132268,1.8498435,0.114169925,151,2530
4.1421022,1.9030151,0.120512694,151,2467
3.7016973,1.6520462,0.10729019,151,2405
3.9211853,1.699015,0.113241576,151,2342
4.2759423,1.7976319,0.12319336,152,2280
4.3507414,1.7735443,0.12492981,152,2217
4.369818,1.7259247,0.12507324,152,2155
4.4163313,1.6890177,0.12601593,152,2092
4.467333,1.6529466,0.1270938,152,2030
4.4803677,1.6024035,0.12710571,153,1967
4.5068116,1.55715,0.12766388,153,1906
4.509327,1.5032058,0.12740754,153,1843
4.477848,1.4385802,0.12621139,153,1781
4.350103,1.3454542,0.12232666,153,1718
4.3596296,1.296489,0.12233124,154,1656
3.003788,0.8577347,0.084114075,154,1593
3.0081224,0.8236084,0.084074706,154,1531
2.9589586,0.77564573,0.08255127,154,1468
2.9332383,0.73483276,0.08160706,154,1406
2.9021947,0.693506,0.08061905,154,1343
2.929068,0.66623914,0.08125091,154,1281
3.0289521,0.65428466,0.08391418,155,1218
3.1045065,0.63529634,0.08580902,155,1156
3.1505375,0.6090262,0.086989745,155,1094
1.1653994,0.2121341,0.0321492,155,1031
1.0543262,0.1800531,0.029029235,155,969
1.0019593,0.15989472,0.027568053,155,906
0.98880005,0.14675903,0.027160645,155,844
0.9111279,0.12507935,0.025015868,155,781
0.8677902,0.10948181,0.023792267,155,719
0.8739038,0.100600585,0.023955079,155,656
0.8600372,0.08948822,0.023546753,155,594
0.82612455,0.07687531,0.022619324,156,531
0.7870587,0.064587705,0.021529235,156,469
0.76278216,0.05420929,0.020847932,156,406
0.77830994,0.04677429,0.021256713,156,343
0.75879395,0.03729492,0.020734863,156,281
0.729198,0.027869567,0.019916382,156,218
0.7494507,0.020462036,0.020462036,156,156
0.75460833,0.012349853,0.020598449,156,93
0.7547005,0.004124298,0.020598449,156,31
0.7347084,-0.0040150452,0.020052796,156,-31
0.7296213,-0.011940918,0.019916382,156,-93
0.70948,-0.019370727,0.019370727,156,-156
0.72420347,-0.02767868,0.019779969,156,-218
0.7338336,-0.036068115,0.020052796,156,-281
0.68850493,-0.041377258,0.018804016,156,-343
0.6481155,-0.046060182,0.017713929,156,-406
0.65256137,-0.053550567,0.017850189,156,-469
0.6370117,-0.059277344,0.017441407,156,-531
0.6363281,-0.06621094,0.017421875,155,-594
0.64549714,-0.07430725,0.017694091,155,-656
0.65456176,-0.08258057,0.017946167,155,-719
0.6387799,-0.0876915,0.0175383,155,-781
0.62294406,-0.09245819,0.017111206,155,-844
0.6070985,-0.096882015,0.016703796,155,-906
0.6158447,-0.1051712,0.01695633,155,-969
0.6195795,-0.112780154,0.01709198,155,-1031
0.61832976,-0.1195285,0.017072754,155,-1094
0.62677735,-0.12826172,0.017324219,155,-1156
0.6448737,-0.13929932,0.0178656,155,-1218
0.60920715,-0.13856888,0.016899109,154,-1281
0.57363313,-0.13707489,0.015934754,154,-1343
0.5575577,-0.13967896,0.015512085,154,-1406
0.5753531,-0.15082,0.016051635,154,-1468
0.57848513,-0.15838623,0.016168213,154,-1531
0.59595156,-0.17017455,0.016688233,154,-1593
0.58447784,-0.173815,0.01640045,154,-1656
0.5921106,-0.18313538,0.01665039,153,-1718
0.5662741,-0.1819246,0.015960846,153,-1781
0.54055023,-0.180195,0.015272827,153,-1843
0.5432739,-0.18770675,0.0153892515,153,-1906
0.56004596,-0.20030044,0.015888214,153,-1967
0.5625183,-0.20813599,0.016003419,152,-2030
0.55087435,-0.21068084,0.01571869,152,-2092
0.5439029,-0.21482255,0.015567627,152,-2155
0.54615694,-0.22263642,0.015682679,152,-2217
0.5252774,-0.22082977,0.015133667,152,-2280
0.49989378,-0.21659958,0.014436645,151,-2342
0.4883867,-0.21796417,0.014155426,151,-2405
0.49959564,-0.22953033,0.014535522,151,-2467
0.5015799,-0.23710464,0.014633789,151,-2530
0.5034668,-0.24476074,0.014748535,150,-2592
0.5007666,-0.25022948,0.014714356,150,-2655
0.51578367,-0.26481262,0.015222168,150,-2717
0.5084419,-0.26809233,0.015055847,150,-2780
0.48351592,-0.26174012,0.014384461,149,-2842
0.47189027,-0.2621393,0.014089966,149,-2905
0.473349,-0.26975572,0.014203796,149,-2967
