2.326394,-0.53189194,0.29834977,712,-1287
2.3060496,-0.5537378,0.2961972,711,-1350
2.2854156,-0.57541275,0.2940483,711,-1413
2.278965,-0.6004181,0.29383087,710,-1475
2.272297,-0.6252785,0.29354095,709,-1538
2.2701807,-0.65150756,0.29379576,709,-1601
2.2629175,-0.6763477,0.29350525,708,-1664
2.2458875,-0.6982416,0.29198274,707,-1727
2.2428703,-0.7242851,0.29223633,706,-1789
2.2160773,-0.7424776,0.28941604,705,-1852
2.212572,-0.76825315,0.2896704,705,-1914
2.1759844,-0.78252107,0.28570375,704,-1977
1.1581068,-0.43078032,0.15243347,703,-2040
1.1070015,-0.42569688,0.14612931,702,-2103
1.0884967,-0.43227294,0.14407898,701,-2165
1.0698957,-0.43858156,0.1420697,700,-2229
1.060525,-0.44827515,0.14124756,699,-2291
1.0600832,-0.4619043,0.14164306,698,-2354
1.0459785,-0.46935976,0.14021575,697,-2416
1.0452673,-0.48296753,0.14061035,696,-2479
1.0264746,-0.48804367,0.13858245,695,-2542
1.0166693,-0.4970105,0.13773376,693,-2605
1.0067029,-0.5059839,0.13692184,692,-2668
1.0100167,-0.52144885,0.13784866,691,-2730
1.0086014,-0.5348862,0.13824005,690,-2793
1.0157486,-0.55309767,0.1397943,689,-2856
1.0009671,-0.5594179,0.13834763,687,-2919
1.0120964,-0.58014905,0.1404564,686,-2982
1.0056778,-0.5912651,0.14020538,685,-3045
1.0118704,-0.61003476,0.14174102,684,-3108
1.005261,-0.6209659,0.14141418,682,-3170
1.0109453,-0.64000916,0.14290252,681,-3233
1.0579975,-0.68623716,0.15033966,679,-3296
1.0586718,-0.70339847,0.15121093,678,-3360
1.0631741,-0.72345793,0.15266678,677,-3423
1.0675732,-0.7433914,0.15403534,675,-3485
1.0593377,-0.75518495,0.15371552,673,-3548
1.391897,-1.0156485,0.20310852,672,-3611
2.0093353,-1.5003746,0.29497376,670,-3674
1.9295563,-1.4743272,0.2849565,669,-3738
1.9254035,-1.5041674,0.28595397,667,-3799
1.9475327,-1.5564176,0.29100007,665,-3863
2.003357,-1.6375853,0.30129853,664,-3926
1.9890418,-1.6628714,0.30115998,662,-3989
1.9517665,-1.6686378,0.29748642,660,-4052
1.9295672,-1.6868262,0.29612365,659,-4115
1.9189459,-1.7140728,0.29640198,657,-4177
1.9219836,-1.7552752,0.29903564,655,-4240
1.9243393,-1.7968048,0.301651,653,-4303
1.9117126,-1.8247724,0.30197755,651,-4366
1.8986106,-1.8527362,0.3022165,649,-4429
1.8922272,-1.8877121,0.30357727,647,-4493
1.8887677,-1.9262183,0.30557007,646,-4556
1.875267,-1.9533546,0.30561447,643,-4616
1.8605312,-1.9812224,0.30581787,641,-4679
1.8453859,-2.0089064,0.30601457,640,-4742
1.8431969,-2.0513558,0.30834275,637,-4805
1.8009037,-2.0492,0.30408782,636,-4868
1.7945657,-2.0878131,0.3058429,633,-4931
1.7491881,-2.0808802,0.30097687,631,-4994
1.1014354,-1.3398498,0.1913919,629,-5057
1.0742295,-1.3364433,0.1885666,627,-5120
1.0479339,-1.3320312,0.18570389,625,-5180
1.0333128,-1.3435304,0.18502747,623,-5243
1.0185876,-1.3548214,0.18440308,620,-5306
0.97132874,-1.3218933,0.17779998,618,-5369
0.9365305,-1.3042525,0.17338775,616,-5431
0.9193332,-1.3104342,0.17221221,614,-5494
0.88812315,-1.2959008,0.16837646,611,-5557
0.8545404,-1.2766713,0.16403367,609,-5620
0.826936,-1.2651978,0.16077636,607,-5683
0.8023224,-1.2574768,0.1580658,604,-5746
0.78065825,-1.2536032,0.15585068,602,-5808
0.76429933,-1.2579187,0.1546936,599,-5871
0.7563678,-1.2743301,0.15510224,597,-5930
0.76981246,-1.3299505,0.1601674,595,-5993
1.0057023,1.7427063,0.22809677,646,6001
1.0196756,1.7229701,0.22789276,649,5938
1.0410694,1.7157794,0.22938293,652,5875
1.0703027,1.7210633,0.23258789,654,5812
1.0917109,1.7132992,0.23403168,657,5749
1.1239454,1.7219256,0.23784027,659,5686
1.1841097,1.7713531,0.24737412,662,5623
2.5106323,3.667894,0.51813203,664,5560
2.5506463,3.6400344,0.52004397,667,5498
2.5757797,3.5914521,0.5190399,669,5435
2.657029,3.6242256,0.5298592,672,5375
2.7114213,3.614534,0.53473055,674,5312
2.759925,3.596219,0.53830445,677,5249
2.8144007,3.584957,0.5432135,679,5186
2.8629475,3.565193,0.54681563,681,5123
2.9143372,3.5487785,0.5510254,684,5060
2.9402409,3.5011098,0.5504695,686,4997
2.975232,3.4645996,0.5516968,688,4934
3.0147235,3.436605,0.5542639,691,4874
3.0456178,3.3956275,0.55488324,693,4811
2.7807474,3.0325997,0.5020601,695,4748
2.6238074,2.798846,0.4695607,697,4684
2.4208558,2.525956,0.42954484,699,4621
2.4657593,2.516786,0.4338913,702,4558
2.5073235,2.5032926,0.43764314,704,4495
2.5417695,2.4823358,0.44018006,706,4432
2.7831848,2.6607506,0.47860596,708,4371
2.9571533,2.7652807,0.504646,710,4307
2.5590677,2.3405237,0.4334619,712,4244
2.6031542,2.328584,0.43774414,714,4181
2.6808867,2.3453104,0.44754487,716,4118
2.6982195,2.3099346,0.44760925,718,4056
3.2826025,2.7479682,0.5409552,720,3993
3.2588873,2.667375,0.53347504,721,3930
3.2029593,2.5629227,0.52091306,723,3866
3.942022,3.0833807,0.6370914,725,3803
4.0740886,3.1148114,0.6542966,727,3739
4.186665,3.1300275,0.66888213,729,3678
4.2209215,3.0833874,0.6703296,730,3614
4.295062,3.0652344,0.67815065,732,3551
4.324439,3.0146666,0.6789731,733,3488
3.4999979,2.384153,0.546781,735,3426
3.4639988,2.3039982,0.5383293,737,3362
3.3810906,2.1953828,0.52263933,738,3299
3.3631506,2.1312532,0.51731354,740,3236
2.513011,1.5546601,0.38477722,741,3174
2.5130372,1.5164942,0.3829175,743,3110
2.4612012,1.4483496,0.3732715,744,3047
2.455171,1.4092032,0.37081543,746,2985
2.4142594,1.3504697,0.3630542,747,2922
2.402787,1.3095007,0.35974,748,2859
2.403634,1.2762474,0.3585388,750,2796
2.4351542,1.2587129,0.36174178,751,2733
2.4885068,1.2521857,0.36831513,753,2671
2.506508,1.2267517,0.36948594,754,2607
2.5824835,1.2288191,0.37929016,755,2544
2.6001885,1.2027261,0.38056487,756,2482
2.622284,1.177948,0.38241273,757,2418
3.4843633,1.5198153,0.5066441,759,2356
3.5145583,1.4871048,0.50921327,760,2293
2.8014112,1.1494474,0.40471664,761,2230
2.8092988,1.1166642,0.40461272,762,2167
3.4455795,1.3261673,0.49484023,763,2105
3.4551454,1.2866968,0.4948572,764,2042
3.4177065,1.2300925,0.48809996,765,1979
3.360695,1.1682181,0.47876891,766,1916
3.3637884,1.1281457,0.47809082,767,1854
3.314621,1.0715129,0.46994674,768,1791
3.2692177,1.0173736,0.46245208,769,1728
2.7010484,0.80823076,0.38123763,770,1665
2.6716323,0.7674202,0.37621993,770,1602
2.6988716,0.7434937,0.3793335,771,1540
2.6972215,0.7113098,0.37833434,772,1477
2.527105,0.6368729,0.3537915,773,1414
2.2496324,0.5407811,0.3143927,773,1351
2.3375068,0.53491396,0.3261328,774,1288
2.352876,0.51131743,0.3277771,775,1226
2.7076657,0.5574381,0.3765921,775,1163
2.762257,0.5371802,0.38368773,776,1100
2.7630177,0.5059534,0.38327178,776,1037
2.866032,0.4923613,0.3970598,777,974
2.8907921,0.46397322,0.400036,778,911
2.6604812,0.3971251,0.36771148,778,848
2.4291527,0.33535767,0.33535767,778,786
2.7864637,0.35359633,0.38439652,779,723
2.9328918,0.33957887,0.40423888,779,660
2.951128,0.30893248,0.40645644,779,597
2.9691231,0.27787018,0.40867585,780,534
2.799182,0.23100129,0.38500214,780,471
2.5001972,0.17873994,0.34365937,780,408
2.4772499,0.14975876,0.34033996,780,345
2.4292274,0.12009781,0.33362168,781,283
2.336377,0.08981079,0.3207837,781,220
2.2877233,0.06281158,0.31405792,781,157
2.2584999,0.037225343,0.30997926,781,94
2.2538247,0.012358094,0.30929947,781,31
2.248871,-0.012330933,0.30861968,781,-31
2.2584999,-0.037225343,0.30997926,781,-94
2.3075304,-0.06335541,0.31677705,781,-157
2.321527,-0.08923996,0.3187448,781,-220
2.320382,-0.11471664,0.31867325,781,-283
2.2695763,-0.13720413,0.31180847,780,-345
2.7472522,-0.19640198,0.3776178,780,-408
2.7448766,-0.22651978,0.37753296,780,-471
2.7274504,-0.25525284,0.37541154,780,-534
2.6998632,-0.2826294,0.37184998,779,-597
2.6474762,-0.3065326,0.3649002,779,-660
2.6095455,-0.3311458,0.3599904,779,-723
2.5861888,-0.35703737,0.35703737,778,-786
2.591887,-0.38688615,0.3582309,778,-848
2.5826368,-0.41451415,0.35739258,778,-911
2.597494,-0.44622862,0.35985658,777,-974
2.3975391,-0.43902832,0.33257446,776,-1037
2.2953968,-0.44638917,0.3188391,776,-1100
2.4650433,-0.5074884,0.3428473,775,-1163
2.4497023,-0.5323593,0.34126586,775,-1226
2.3809729,-0.54486066,0.33219728,774,-1288
2.3363419,-0.5616249,0.3265106,773,-1351
2.2964947,-0.5787552,0.32150635,773,-1414
2.294794,-0.6051819,0.3218866,772,-1477
2.2928467,-0.6316406,0.32226562,771,-1540
2.2811265,-0.6552483,0.3212288,770,-1602
2.2690704,-0.67897063,0.32026643,770,-1665
2.261485,-0.7037692,0.31990173,769,-1728
2.2490387,-0.7270436,0.31886855,768,-1791
2.2268655,-0.74684507,0.31650147,767,-1854
2.2186203,-0.7712192,0.31606752,766,-1916
2.2100859,-0.7954486,0.31563354,765,-1979
1.3003235,-0.4842407,0.18623658,764,-2042
1.1562347,-0.44502258,0.16605377,763,-2105
1.0914817,-0.43385148,0.15720199,762,-2167
1.0774658,-0.4420952,0.15566024,761,-2230
1.0634962,-0.44999406,0.1540866,760,-2293
1.0630261,-0.4636725,0.1545694,759,-2356
1.0534347,-0.47321016,0.15362442,757,-2418
1.0526716,-0.4869168,0.15406951,756,-2482
1.04284,-0.49621293,0.15316223,755,-2544
1.0284251,-0.50333863,0.1516008,754,-2607
1.0184281,-0.51246035,0.15073395,753,-2671
1.0172163,-0.52579147,0.15110733,751,-2733
1.0244998,-0.5439743,0.15281983,750,-2796
1.009867,-0.55036986,0.15119506,748,-2859
1.0124314,-0.56632596,0.15224853,747,-2922
1.0190464,-0.5849057,0.15391113,746,-2985
1.0212276,-0.6009645,0.15488175,744,-3047
1.0187988,-0.6147949,0.15523681,743,-3110
1.0161672,-0.6286461,0.15558945,741,-3174
1.0303051,-0.65291196,0.15847962,740,-3236
1.0688072,-0.6939894,0.16521317,738,-3299
1.0775968,-0.71673846,0.16746597,737,-3362
1.0860649,-0.7398132,0.16966859,735,-3426
1.1187401,-0.7798996,0.17565155,733,-3488
2.1112008,-1.5066894,0.3333391,732,-3551
2.0543952,-1.5007379,0.32626098,730,-3614
2.0258057,-1.5145295,0.32365265,729,-3678
1.9543017,-1.4941455,0.31385985,727,-3739
1.8987341,-1.4851565,0.30686462,725,-3803
2.0139527,-1.6115112,0.32753906,723,-3866
2.015213,-1.649437,0.3298874,721,-3930
2.0083594,-1.6812598,0.3309668,720,-3993
1.9784431,-1.693737,0.3282051,718,-4056
1.9565246,-1.7116193,0.3266205,716,-4118
1.9560634,-1.7497456,0.3289299,714,-4181
1.9476739,-1.7813427,0.32990235,712,-4244
1.924324,-1.7994658,0.32839096,710,-4307
1.9367523,-1.8515533,0.33305055,708,-4371
1.9276268,-1.8825536,0.3338237,706,-4432
1.9138534,-1.9107765,0.33405533,704,-4495
1.882312,-1.921265,0.33122405,702,-4558
1.8748755,-1.9562722,0.33266875,699,-4621
1.8499031,-1.9733131,0.33106154,697,-4684
1.8348237,-2.0010037,0.33127487,695,-4748
1.826045,-2.0358987,0.33268845,693,-4811
1.7675903,-2.0149474,0.32497558,691,-4874
1.4423407,-1.6795776,0.267453,688,-4934
1.1013931,-1.3114907,0.20620194,686,-4997
1.0743665,-1.3082525,0.20313476,684,-5060
1.0475714,-1.3045278,0.20008346,681,-5123
1.0239758,-1.3043307,0.19763976,679,-5186
1.0338382,-1.3471051,0.20164306,677,-5249
1.0160381,-1.3544573,0.20037705,674,-5312
0.9512457,-1.2975128,0.18969543,672,-5375
0.93769956,-1.3074499,0.18895386,669,-5435
0.92336243,-1.3177332,0.18826172,667,-5498
0.8948511,-1.3073276,0.184675,664,-5560
0.8722113,-1.304773,0.18221496,662,-5623
0.83617187,-1.2810462,0.17694397,659,-5686
0.81411207,-1.2776436,0.1745224,657,-5749
0.7869873,-1.2654877,0.17102051,654,-5812
0.7782251,-1.2825875,0.17146942,652,-5875
0.76412416,-1.2911588,0.1707782,649,-5938
0.78717923,-1.3640442,0.178535,646,-6001
1.0060172,1.7458322,0.24681152,698,6004
1.0174619,1.7217402,0.24597168,701,5941
1.0414215,1.7188523,0.24818115,703,5878
1.0706793,1.7240334,0.25163087,706,5815
1.0895267,1.7120509,0.2526294,709,5752
1.1179535,1.7171992,0.2561714,712,5693
1.1615045,1.7418704,0.26271972,715,5630
2.5176544,3.687149,0.5625,718,5567
2.5522077,3.6508656,0.5633054,720,5504
2.577649,3.6021955,0.5622128,723,5441
2.6579185,3.629467,0.5731029,726,5378
2.7153447,3.623664,0.5789838,728,5315
2.7608047,3.6013045,0.5822067,731,5252
2.8124182,3.5860577,0.5868553,733,5189
2.849719,3.556189,0.589099,736,5129
2.8948486,3.5320272,0.59234846,739,5066
2.914245,3.476905,0.5904442,741,5003
2.932862,3.4219267,0.58851427,743,4940
3.0093832,3.4339347,0.5981104,746,4876
3.0402892,3.3929632,0.59877473,748,4813
2.5515885,2.785179,0.49799287,751,4750
2.3641214,2.5262241,0.45776427,753,4689
2.38828,2.4962292,0.45849106,755,4626
2.4883933,2.543939,0.47372925,758,4563
2.7159767,2.7159767,0.51275635,760,4500
2.7066882,2.6475837,0.506994,762,4436
2.499278,2.391174,0.46447417,764,4373
2.5281367,2.367615,0.46663284,767,4312
2.5577087,2.3426971,0.46858215,769,4248
2.6054864,2.3340142,0.47378358,771,4185
3.6931143,3.2353876,0.6668564,773,4122
3.2619658,2.794572,0.58487046,775,4058
3.2612274,2.7337894,0.58117765,777,3997
3.2644227,2.6753705,0.5778717,779,3933
3.2124915,2.5737972,0.5650232,781,3870
3.2289422,2.528877,0.56424683,783,3806
3.165413,2.4244828,0.5500473,785,3744
3.5607038,2.6652524,0.6151004,787,3681
4.2175207,3.084542,0.72425,789,3618
4.291461,3.0663276,0.7325775,790,3554
4.344426,3.0337021,0.7379761,792,3492
4.365296,2.9770043,0.7373723,794,3429
3.4581099,2.3025901,0.5809604,796,3365
3.4121227,2.2189333,0.57056856,797,3303
3.3736236,2.141131,0.56126493,799,3240
3.342297,2.0696871,0.5533139,801,3176
3.31362,2.0024908,0.5461447,802,3114
2.5165207,1.4830124,0.41277313,804,3051
2.455456,1.4106238,0.4008783,805,2987
2.448873,1.3716458,0.39823928,807,2925
2.424732,1.3231385,0.3925992,808,2862
2.4213831,1.287279,0.39054567,810,2799
2.4398117,1.2626724,0.3918434,811,2736
2.4977386,1.2578354,0.39950714,813,2672
2.5067432,1.2283282,0.39957458,814,2610
3.7176952,1.7709961,0.59033203,815,2547
2.6138315,1.2103391,0.41365907,817,2484
2.6179473,1.17724,0.41276854,818,2421
3.4876995,1.5228397,0.5482129,819,2358
3.5267925,1.4942394,0.55272216,821,2296
2.8015137,1.1505817,0.43759644,822,2232
2.823036,1.1235181,0.4396823,823,2170
3.4491303,1.3291576,0.53560686,824,2107
3.4588556,1.289245,0.5355728,825,2044
3.4355018,1.2378076,0.53050506,826,1981
3.369236,1.1724391,0.51894486,827,1918
3.334874,1.1197252,0.51239824,828,1856
3.2480621,1.0510666,0.4978958,829,1793
2.6121857,0.81377137,0.39946014,830,1730
2.658792,0.7963536,0.40566695,831,1667
2.6530883,0.76297575,0.40392333,832,1604
2.6517236,0.7311413,0.40289977,833,1541
2.5876963,0.6831842,0.39244294,834,1478
2.465531,0.6220297,0.37317076,834,1415
2.3085938,0.55546874,0.3487793,835,1352
2.343458,0.5368277,0.3535098,836,1290
2.392671,0.52055967,0.36035842,837,1227
2.640426,0.5441185,0.3970909,837,1164
2.6655853,0.518876,0.40025666,838,1101
2.6711142,0.48955628,0.40059173,839,1038
2.6958075,0.4635898,0.4037636,839,975
2.7007017,0.433972,0.40401673,840,912
2.4068482,0.35960084,0.35960084,840,849
2.4595978,0.3399469,0.36713958,841,786
2.4681046,0.31353074,0.3681012,841,723
2.7857716,0.32288268,0.41511017,841,661
2.7891457,0.29225555,0.4152832,842,598
2.7626271,0.25877425,0.4110599,842,535
2.4941747,0.20607208,0.3708371,842,472
2.4765263,0.17717376,0.36805877,843,409
2.4536037,0.14848724,0.3644687,843,346
2.430421,0.12026733,0.36087707,843,283
2.362357,0.090879515,0.35068116,843,220
2.328624,0.06396332,0.34561753,843,157
2.2945826,0.037807617,0.34048095,843,94
2.2651908,0.012439575,0.3360782,843,31
2.2651908,-0.012439575,0.3360782,843,-31
2.2698565,-0.03740021,0.336812,843,-94
2.2940161,-0.0630127,0.34048095,843,-157
2.3178773,-0.0891684,0.34407836,843,-220
2.311864,-0.11440063,0.3432733,843,-283
2.2314465,-0.13504273,0.3314685,843,-346
2.2101269,-0.15811524,0.3284668,843,-409
2.750493,-0.22724944,0.40894684,842,-472
2.7429292,-0.25692916,0.40812898,842,-535
2.6661675,-0.2793695,0.39697266,842,-598
2.6383762,-0.30579895,0.39314666,841,-661
2.6054943,-0.33098373,0.38859192,841,-723
2.567389,-0.35484496,0.38322937,841,-786
2.548715,-0.38079682,0.38079682,840,-849
2.5248873,-0.40572068,0.37771547,840,-912
2.4618134,-0.4233505,0.3687172,839,-975
2.447305,-0.448537,0.3670267,839,-1038
2.4616609,-0.4791806,0.36963594,838,-1101
2.562909,-0.52814436,0.3854332,837,-1164
2.5570164,-0.5563153,0.38511032,837,-1227
2.3723896,-0.5434552,0.35787416,836,-1290
2.3374512,-0.5624121,0.35313904,835,-1352
2.3120348,-0.58330417,0.34993836,834,-1415
2.3102725,-0.60994077,0.35036957,834,-1478
2.2892578,-0.63120115,0.34782714,833,-1541
2.2822266,-0.65632325,0.34746093,832,-1604
2.2749023,-0.68137205,0.3470947,831,-1667
2.257911,-0.70340455,0.3452838,830,-1730
2.2501068,-0.72813016,0.34491912,829,-1793
2.2232492,-0.74648345,0.3415988,828,-1856
2.215004,-0.7707852,0.34116486,827,-1918
2.211197,-0.7966919,0.34144974,826,-1981
2.1698987,-0.8088025,0.3359894,825,-2044
1.297464,-0.499991,0.20147996,824,-2107
1.1448468,-0.45562866,0.17830765,823,-2170
1.0986328,-0.4512085,0.17160645,822,-2232
1.093579,-0.4633301,0.17138672,821,-2296
1.0612766,-0.46338683,0.16681641,819,-2358
1.0516926,-0.47292572,0.1658191,818,-2421
1.055413,-0.4887108,0.16702728,817,-2484
1.0500702,-0.50022125,0.16674042,815,-2547
1.0400318,-0.50962555,0.16578095,814,-2610
1.0344616,-0.52094424,0.16545959,813,-2672
1.0418656,-0.53919524,0.16732773,811,-2736
1.0314918,-0.54837155,0.16636963,810,-2799
1.0211685,-0.5572357,0.16534194,808,-2862
1.0236031,-0.57333344,0.16645981,807,-2925
1.0259684,-0.589404,0.16749984,805,-2987
1.0322,-0.60828644,0.16930695,804,-3051
1.0254425,-0.6196967,0.16901153,802,-3114
1.0397322,-0.6438448,0.17212662,801,-3176
1.0534735,-0.668606,0.1752649,799,-3240
1.0792602,-0.70185244,0.18047181,797,-3303
1.0675213,-0.71081144,0.17934296,796,-3365
1.1128027,-0.7588989,0.18797119,794,-3429
2.1437914,-1.4970044,0.36416015,792,-3492
2.1356568,-1.5259659,0.3645691,790,-3554
2.0707827,-1.5144955,0.35560334,789,-3618
2.0341215,-1.5225774,0.3513881,787,-3681
1.9542984,-1.4968545,0.33959442,785,-3744
1.9264462,-1.5087744,0.33664,783,-3806
2.0063577,-1.6074618,0.35288453,781,-3870
2.011528,-1.6485558,0.35608292,779,-3933
2.0121658,-1.6867386,0.35858458,777,-3997
1.9752388,-1.692215,0.3541603,775,-4058
1.9639467,-1.7205341,0.35462493,773,-4122
1.95596,-1.7521636,0.35567322,771,-4185
1.9438586,-1.7804499,0.35612243,769,-4248
1.9313663,-1.808736,0.35648346,767,-4312
1.912055,-1.829351,0.35534272,764,-4373
1.9131043,-1.8713287,0.35834655,762,-4436
1.9099449,-1.9099449,0.36058348,760,-4500
1.8818908,-1.9238983,0.358266,758,-4563
1.874303,-1.9590205,0.3598201,755,-4626
1.8526855,-1.97972,0.35873505,753,-4689
1.8283036,-1.9956794,0.35682952,751,-4750
1.8261584,-2.0379932,0.35965577,748,-4813
1.1338284,-1.2937844,0.22534668,746,-4876
1.103453,-1.2874576,0.2214212,743,-4940
1.0860738,-1.2957646,0.22004531,741,-5003
1.0623873,-1.2962271,0.2173874,739,-5066
1.0387986,-1.2963257,0.21474227,736,-5129
1.0252014,-1.3072135,0.21392441,733,-5189
1.0439764,-1.3618048,0.22015686,731,-5252
1.017139,-1.3573855,0.2168811,728,-5315
0.97584,-1.3325386,0.21041153,726,-5378
0.9467737,-1.3230908,0.20650147,723,-5441
0.9378937,-1.3416321,0.2070053,720,-5504
0.9147478,-1.3396641,0.204375,718,-5567
0.8780093,-1.3167219,0.1985962,715,-5630
0.8553833,-1.3138862,0.19600525,712,-5693
0.8258026,-1.2976425,0.19147949,709,-5752
0.79842836,-1.2856483,0.18764648,706,-5815
0.79199463,-1.3071765,0.18874024,703,-5878
0.78013825,-1.3201432,0.18859863,701,-5941
0.78796417,-1.3674252,0.19331543,698,-6004
0.9888916,1.718689,0.26098633,749,6008
1.0191742,1.7296051,0.265361,752,5949
1.0432107,1.7266573,0.2677893,756,5886
1.0699189,1.7275604,0.27082673,759,5822
1.0888122,1.7155488,0.27189025,762,5759
1.1237255,1.7282764,0.27688476,764,5696
1.1672974,1.7528267,0.2839775,767,5633
2.5347686,3.7168756,0.6089264,770,5570
2.5499742,3.6519132,0.60522276,773,5507
2.5848193,3.6208572,0.60701597,776,5447
2.6593506,3.6399446,0.61734927,779,5384
2.7110665,3.6260986,0.62215483,782,5321
2.7657223,3.6153653,0.62780195,785,5258
2.7929168,3.5687737,0.6273033,788,5195
2.841155,3.5492377,0.6314612,790,5132
2.8674073,3.502114,0.6308017,793,5069
2.9103014,3.4790277,0.6345581,796,5008
2.9579751,3.4577487,0.63873976,799,4945
3.0349555,3.4693727,0.6490691,801,4882
3.0860877,3.4503236,0.6539978,804,4818
2.3753884,2.5974674,0.49883696,806,4755
2.3632421,2.5274968,0.49191102,809,4692
2.4718533,2.5879111,0.5105658,811,4631
2.6869433,2.7515588,0.5503592,814,4568
2.5701897,2.5743394,0.522068,816,4504
2.4463282,2.3967004,0.49289796,818,4441
2.4939528,2.389896,0.49855623,821,4377
2.757516,2.5862641,0.5474463,823,4316
2.8259544,2.5922813,0.5568657,826,4253
3.6609159,3.2841616,0.7160452,828,4189
3.7191772,3.2627869,0.7223511,830,4126
3.588647,3.0807135,0.69260985,833,4064
3.209336,2.6937897,0.61519164,835,4000
3.1777482,2.6077797,0.6049654,837,3937
3.1754117,2.547387,0.60064834,839,3873
3.1869717,2.5006394,0.5993536,841,3811
3.1554694,2.419876,0.589726,843,3748
3.16218,2.3697147,0.5873996,845,3684
3.1515136,2.3090286,0.5822296,847,3622
3.6312351,2.5989358,0.6670262,849,3559
4.3729005,3.0570788,0.79867995,851,3495
4.3940716,2.9998162,0.7981012,853,3432
4.302843,2.869573,0.77776456,855,3369
4.1062326,2.6731718,0.7382297,856,3306
3.3504076,2.1296606,0.5996524,858,3244
3.3778894,2.0948951,0.6015033,860,3180
3.3458421,2.0238476,0.5928638,862,3116
3.2950745,1.9445664,0.5813031,863,3054
3.2863402,1.890582,0.57709914,865,2991
3.1858776,1.7868338,0.55715925,867,2928
2.424642,1.324742,0.42221832,868,2865
2.4300756,1.2935699,0.42147264,870,2802
2.4485724,1.2687314,0.42291045,871,2739
3.0049374,1.5156655,0.51706785,873,2676
3.2076948,1.5736194,0.5498401,874,2613
3.2201138,1.5362991,0.5500711,876,2550
2.6316295,1.219931,0.44784546,877,2487
2.640201,1.1889713,0.44779786,879,2424
3.4950624,1.5281916,0.590874,880,2361
3.5207694,1.4931766,0.5932315,881,2298
2.8284566,1.1631752,0.47509307,883,2235
2.836335,1.1302716,0.47507995,884,2172
3.4661353,1.3373657,0.578894,885,2109
3.4805932,1.2989258,0.5794678,886,2046
3.4526553,1.2455136,0.5733263,887,1983
3.4007244,1.1847807,0.563302,889,1920
3.226113,1.0843424,0.5330246,890,1857
2.5892863,0.8387415,0.4267694,891,1794
2.593567,0.8087692,0.4264145,892,1731
2.5879335,0.7760629,0.42467284,893,1669
2.59628,0.7475177,0.4250902,894,1606
2.5852487,0.71363205,0.42239594,895,1543
2.4639442,0.6512201,0.4017865,895,1480
2.35116,0.5938211,0.3826947,896,1417
2.3046386,0.55524904,0.3744873,897,1354
2.3250124,0.53321916,0.37712264,898,1291
2.3885925,0.5202576,0.38686982,899,1228
2.5778964,0.5318939,0.41689423,899,1165
2.622285,0.51106733,0.4233992,900,1102
2.6568763,0.48752242,0.4284288,901,1039
2.6571844,0.4574716,0.42789552,901,976
2.637639,0.42430726,0.42430726,902,913
2.4320965,0.36383423,0.39081025,902,850
2.4554615,0.3397937,0.39410248,903,787
2.4687817,0.31400025,0.39590332,903,724
2.6290467,0.30506593,0.4212854,904,661
2.6813452,0.28126466,0.4292285,904,598
2.487612,0.23332703,0.39801484,905,535
2.4654007,0.2038829,0.39415833,905,472
2.4576147,0.17603882,0.39266098,905,409
2.4199371,0.14661972,0.38651565,905,346
2.4263673,0.12019226,0.38737792,905,283
2.3584182,0.090879515,0.37642792,906,220
2.3148718,0.06369171,0.36941192,906,157
2.2857516,0.037726134,0.36468598,906,94
2.2860343,0.012575379,0.36468598,906,31
2.2662845,-0.012466736,0.36153534,906,-31
2.280815,-0.037644655,0.3638983,906,-94
2.3000643,-0.0632843,0.36704895,906,-157
2.3288147,-0.08973877,0.37170288,906,-220
2.3277345,-0.1153064,0.37163085,905,-283
2.242508,-0.13586959,0.3581764,905,-346
2.2212107,-0.15910523,0.35489,905,-409
2.7508163,-0.22748612,0.4397894,905,-472
2.7629209,-0.2591498,0.4420639,905,-535
2.735365,-0.28693116,0.437876,904,-598
2.6437614,-0.30677336,0.42364335,904,-661
2.6255298,-0.33393678,0.42104003,903,-724
2.587528,-0.35806945,0.41529924,903,-787
2.4858177,-0.37187073,0.39944258,902,-850
2.4621215,-0.3960724,0.3960724,902,-913
2.462519,-0.42395723,0.39654785,901,-976
2.462589,-0.45187178,0.39709947,901,-1039
2.583508,-0.50351,0.41713822,900,-1102
2.6069157,-0.5378815,0.42158723,899,-1165
2.6009119,-0.5665027,0.42125824,899,-1228
2.3587081,-0.54094696,0.3825882,898,-1291
2.3430493,-0.5645032,0.38072875,897,-1354
2.3272173,-0.58777404,0.37879762,896,-1417
2.3302417,-0.6158826,0.37998414,895,-1480
2.304347,-0.63609195,0.37650025,895,-1543
2.2925107,-0.66005677,0.37535384,894,-1606
2.2851408,-0.68526214,0.37498534,893,-1669
2.2634766,-0.705835,0.37214357,892,-1731
2.2556396,-0.7306641,0.37177736,891,-1794
2.252192,-0.7569937,0.3721115,890,-1857
2.243825,-0.78172773,0.37167114,889,-1920
2.2444582,-0.80966765,0.37270066,887,-1983
2.198513,-0.8204651,0.3660202,886,-2046
2.1663346,-0.8358536,0.36180878,885,-2109
1.2804812,-0.5102683,0.21447784,884,-2172
1.1697656,-0.4810547,0.19648437,883,-2235
1.1326506,-0.480363,0.19084579,881,-2298
1.0865479,-0.47508544,0.18369141,880,-2361
1.0768056,-0.48492172,0.18263428,879,-2424
1.0714812,-0.49670106,0.18234253,877,-2487
1.0570179,-0.5042976,0.18056351,876,-2550
1.051485,-0.51583374,0.18023804,874,-2613
1.0457711,-0.52747834,0.17994873,873,-2676
1.0399851,-0.5388698,0.17962326,871,-2739
1.0470703,-0.55737305,0.181604,870,-2802
1.0366538,-0.56639236,0.1805191,868,-2865
1.0217226,-0.5730441,0.17868301,867,-2928
1.0411743,-0.59897184,0.18283585,865,-2991
1.0302429,-0.60799104,0.1817511,863,-3054
1.0363228,-0.6268555,0.18363038,862,-3116
1.0587415,-0.6566089,0.18853088,860,-3180
1.068125,-0.6789453,0.19117187,858,-3244
1.0980339,-0.7148239,0.19740753,856,-3306
1.0859948,-0.7242517,0.19630004,855,-3369
2.1643662,-1.4776046,0.39311677,853,-3432
2.1560547,-1.50729,0.39378846,851,-3495
2.1433535,-1.5340341,0.39371535,849,-3559
2.1222851,-1.5549408,0.39208373,847,-3622
2.0421588,-1.530379,0.37934694,845,-3684
1.997679,-1.5319862,0.37334642,843,-3748
1.9612134,-1.538855,0.368833,841,-3811
1.9561771,-1.5692894,0.37002274,839,-3873
2.0114267,-1.6506524,0.38292634,837,-3937
2.0271485,-1.7015083,0.38858032,835,-4000
1.9932756,-1.7111495,0.38470277,833,-4064
1.9786023,-1.7358027,0.38429078,830,-4126
1.9630464,-1.7610244,0.38395584,828,-4189
1.9508202,-1.7895104,0.38441697,826,-4253
1.9490296,-1.8279877,0.38693848,823,-4316
1.9294189,-1.8489166,0.38570252,821,-4377
1.9337305,-1.8945017,0.38961732,818,-4441
1.9162774,-1.9193714,0.38924256,816,-4504
1.8915803,-1.937069,0.3874472,814,-4568
1.9008996,-1.9901501,0.39263427,811,-4631
1.8763939,-2.0068107,0.3905731,809,-4692
1.8508651,-2.0239058,0.3886859,806,-4755
1.1849257,-1.3247766,0.2511072,804,-4818
1.1148816,-1.2744635,0.23843354,801,-4882
1.0911355,-1.2754916,0.23561783,799,-4945
1.064357,-1.2723519,0.23207092,796,-5008
1.0603759,-1.2950925,0.2332724,793,-5069
1.0460898,-1.3067999,0.23249878,790,-5132
1.0652765,-1.3612044,0.23926651,788,-5195
1.0412838,-1.3611712,0.23636505,785,-5258
1.0262899,-1.3726807,0.23552032,782,-5321
0.9848364,-1.3479794,0.22862273,779,-5384
0.9585132,-1.342701,0.22509614,776,-5447
0.95021284,-1.3608353,0.22552796,773,-5507
0.95193404,-1.3958751,0.22868271,770,-5570
0.887146,-1.3321483,0.2158229,767,-5633
0.85900176,-1.3211343,0.2116571,764,-5696
0.8365265,-1.3180435,0.2088913,762,-5759
0.82462037,-1.3314856,0.20873474,759,-5822
0.7997095,-1.3236291,0.20528321,756,-5886
0.8103064,-1.3751428,0.21097839,752,-5949
0.83808565,-1.4565889,0.22118591,749,-6008
1.0051831,1.7522534,0.28438476,801,6015
1.0117431,1.719588,0.282068,804,5952
1.0382935,1.7209281,0.2852829,807,5889
1.0622717,1.7176392,0.28780884,811,5826
1.0720733,1.693824,0.28692856,814,5766
1.1175416,1.7232354,0.29515305,817,5703
1.1418887,1.7189415,0.2977208,820,5640
1.1968429,1.7592758,0.3081177,823,5577
2.5480857,3.6582503,0.6480887,827,5514
2.5679855,3.6014547,0.6453726,830,5450
2.6481025,3.6286194,0.6578345,833,5387
2.6917038,3.6081467,0.6619217,836,5327
2.7431436,3.5937426,0.6670627,839,5264
2.7763844,3.5551245,0.66796875,842,5201
2.8152099,3.5240917,0.67019534,845,5138
2.8631446,3.503991,0.6746338,847,5074
2.9426222,3.5212061,0.6864844,850,5011
3.0115445,3.5272326,0.6964581,853,4950
3.066448,3.5120764,0.70247287,856,4887
3.1048667,3.4776866,0.7046312,859,4824
2.3730798,2.599491,0.53365237,862,4760
2.4049172,2.576487,0.5360338,864,4697
2.432007,2.5505939,0.5378833,867,4636
2.4633088,2.5268252,0.54027194,870,4572
2.4806237,2.4887605,0.53952074,872,4509
2.6665795,2.6166303,0.5752826,875,4445
2.7049568,2.5980601,0.5794185,878,4384
2.7514539,2.584632,0.58486754,880,4320
2.7725053,2.5470538,0.58484805,882,4257
2.862887,2.5720217,0.59955996,885,4193
3.7545424,3.3010137,0.7812054,888,4132
3.783339,3.252417,0.78151095,890,4068
3.8039682,3.1971693,0.78041136,892,4004
3.1749706,2.6090136,0.64708006,894,3941
3.1372077,2.5217545,0.6355995,897,3879
3.145523,2.4713058,0.6331833,899,3815
3.1177557,2.3939757,0.62357545,901,3751
3.1195693,2.3420577,0.62056273,903,3689
3.1094134,2.2808166,0.6148039,905,3626
3.118386,2.2345152,0.61295927,907,3562
3.1341286,2.194706,0.61291885,910,3500
3.7410014,2.558062,0.7275531,912,3436
4.3101654,2.8791046,0.8340912,914,3374
4.2838383,2.7931342,0.8245508,915,3310
4.206073,2.6763396,0.80555266,917,3246
4.134111,2.567608,0.7880658,919,3184
3.3686326,2.0406618,0.6390234,921,3120
3.2884607,1.9433854,0.6211038,923,3058
3.301167,1.9017285,0.6205591,925,2994
3.2613108,1.8316175,0.6105777,927,2931
3.2250443,1.764396,0.6011292,928,2868
3.1917756,1.7011917,0.592565,930,2805
3.1753044,1.647335,0.5869827,931,2742
3.18849,1.6102637,0.5872778,933,2679
3.1969786,1.5707818,0.58664703,935,2616
3.2006998,1.5288185,0.5850871,936,2553
2.626524,1.2193936,0.47847807,938,2490
2.6351044,1.1884347,0.4784677,939,2427
3.1134102,1.3627347,0.56330293,941,2363
3.5231178,1.496206,0.6353784,942,2301
3.534542,1.4554901,0.6355057,943,2238
2.853864,1.1387508,0.51162505,945,2175
3.4457932,1.3312305,0.6158998,946,2112
3.4554596,1.291446,0.6159906,948,2049
3.4508314,1.2466223,0.61349124,949,1986
3.3850715,1.1809757,0.60013884,950,1923
2.5144045,0.8462894,0.44469392,951,1860
2.560958,0.8307138,0.45180634,952,1797
2.5698724,0.8024707,0.4523062,953,1734
2.5737312,0.7728096,0.45197678,954,1671
2.586785,0.7457346,0.45330596,955,1608
2.4807267,0.6856348,0.43377867,956,1544
2.4784424,0.65579224,0.43259278,957,1482
2.4806452,0.62736785,0.43215683,958,1419
2.2956712,0.55379987,0.3992154,959,1356
2.3207378,0.5328506,0.40291762,960,1293
2.3408625,0.51042753,0.40571687,961,1230
2.5442128,0.5255043,0.44026566,961,1167
2.5837107,0.5040472,0.4464395,962,1103
2.6180968,0.480954,0.45178527,963,1040
2.618348,0.4512776,0.4512776,963,977
2.637718,0.42476073,0.4541202,964,914
2.4276893,0.36360627,0.4174823,965,851
2.4559011,0.34024033,0.42190415,965,788
2.4741004,0.31501466,0.4246521,966,725
2.560654,0.29742754,0.4390787,966,662
2.558864,0.26866242,0.43839845,966,599
2.4684117,0.23179016,0.4225949,967,536
2.4413183,0.20210342,0.41770568,967,473
2.423701,0.1738469,0.41449434,968,410
2.4057522,0.14594787,0.4112059,968,347
2.421938,0.12011719,0.4138037,968,283
2.3837385,0.09194641,0.40714905,968,220
2.3254297,0.0640271,0.39712647,968,157
2.306294,0.038133547,0.39376098,968,94
2.2819366,0.012575379,0.38962477,968,31
2.277008,-0.012548218,0.38878328,968,-31
2.2816541,-0.037726134,0.38955414,968,-94
2.295869,-0.0632132,0.39207825,968,-157
2.3394127,-0.090236664,0.3995781,968,-220
2.3333304,-0.115722656,0.39866456,968,-283
2.2679996,-0.13759094,0.38766038,968,-347
2.2418005,-0.16079956,0.38338622,968,-410
2.7606056,-0.22853546,0.47233522,967,-473
2.767762,-0.2598999,0.473844,967,-536
2.7451415,-0.28822023,0.4703125,966,-599
2.736913,-0.31790054,0.46930206,966,-662
2.7087977,-0.34489745,0.4649353,966,-725
2.6121414,-0.36188585,0.44874495,965,-788
2.4618134,-0.3687172,0.4233505,965,-851
2.4576523,-0.39576417,0.42311937,964,-914
2.5309076,-0.43620712,0.43620712,963,-977
2.6859734,-0.49342316,0.46349823,963,-1040
2.636933,-0.5144302,0.45563585,962,-1103
2.6021454,-0.5374702,0.45029068,961,-1167
2.591325,-0.5650412,0.4491269,961,-1230
2.3543715,-0.5405731,0.40875703,960,-1293
2.338805,-0.56420535,0.40671632,959,-1356
2.3324757,-0.589895,0.406344,958,-1419
2.3306892,-0.61669695,0.40680358,957,-1482
2.309642,-0.6383496,0.40386292,956,-1544
2.3072605,-0.66515154,0.40432236,955,-1608
2.304552,-0.69198364,0.40470582,954,-1671
2.287469,-0.7142871,0.40260223,953,-1734
2.2607725,-0.73334074,0.39884734,952,-1797
2.2620294,-0.7613458,0.4000592,951,-1860
2.2582664,-0.7878586,0.40036774,950,-1923
2.2402575,-0.8092992,0.39827454,949,-1986
2.2266464,-0.8321884,0.3969351,948,-2049
2.217453,-0.8566797,0.39634675,946,-2112
2.2033846,-0.879196,0.39501068,945,-2175
2.1891358,-0.9014648,0.3936035,943,-2238
1.1531854,-0.48973754,0.2079718,942,-2301
1.1296844,-0.49446106,0.20439148,941,-2363
1.092714,-0.4928151,0.19840896,939,-2427
1.0873004,-0.50479156,0.19807525,938,-2490
1.0728354,-0.5124413,0.19611405,936,-2553
1.0671355,-0.5243192,0.19581985,935,-2616
1.0481501,-0.5293408,0.19305542,933,-2679
1.0642744,-0.55214125,0.19674042,931,-2742
1.075537,-0.57325286,0.19967742,930,-2805
1.0475982,-0.57313263,0.19526611,928,-2868
1.049815,-0.58959717,0.1965448,927,-2931
1.0647546,-0.6133813,0.20015442,925,-2994
1.0706617,-0.6327301,0.20221984,923,-3058
1.0680001,-0.64697677,0.20259766,921,-3120
1.0775522,-0.6692447,0.20540863,919,-3184
1.0994092,-0.6995581,0.2105603,917,-3246
1.1371193,-0.74142075,0.21887207,915,-3310
1.477771,-0.9871216,0.28597412,914,-3374
2.1842883,-1.4935962,0.42480224,912,-3436
2.1716478,-1.5207188,0.42469347,910,-3500
2.1632047,-1.5500691,0.425206,907,-3562
2.1339893,-1.5653235,0.4219397,905,-3626
2.0375922,-1.5297492,0.40532959,903,-3689
1.9779732,-1.5187912,0.39561003,901,-3751
1.9494476,-1.5315994,0.3924173,899,-3815
1.9516127,-1.5687479,0.39539748,897,-3879
2.0301495,-1.6682636,0.41375792,894,-3941
2.019204,-1.6971058,0.41425416,892,-4004
1.9965541,-1.7163745,0.4124211,890,-4068
1.9774417,-1.7385774,0.41144517,888,-4132
1.9698426,-1.7697095,0.41253418,885,-4193
1.9720443,-1.811684,0.41599426,882,-4257
1.9411435,-1.823451,0.41262254,880,-4320
1.9173474,-1.8415762,0.4107077,878,-4384
1.9434991,-1.9070942,0.41928664,875,-4445
1.9398407,-1.9462036,0.4219037,872,-4509
1.9354569,-1.9853626,0.42449936,870,-4572
1.9101318,-2.0032716,0.42246094,867,-4636
1.882109,-2.0163813,0.4195047,864,-4697
1.8664672,-2.0445435,0.41972655,862,-4760
1.1655596,-1.3055154,0.26451692,859,-4824
1.0893532,-1.2476623,0.24955292,856,-4887
1.0627092,-1.2446845,0.24576508,853,-4950
1.0559193,-1.2635362,0.24633545,850,-5011
1.0388678,-1.2713934,0.24478516,847,-5074
1.0248352,-1.2828931,0.24397461,845,-5138
1.0563655,-1.3526626,0.2541504,842,-5201
1.0294292,-1.3486365,0.25033095,839,-5264
1.0145652,-1.3599937,0.24949355,836,-5327
0.9944966,-1.3627304,0.24705017,833,-5387
0.9737663,-1.3656523,0.24472183,830,-5450
0.9671979,-1.3885922,0.24600036,827,-5514
0.96304107,-1.4156033,0.24792725,823,-5577
0.98854154,-1.4881004,0.2577391,820,-5640
0.9667407,-1.4907024,0.25532517,817,-5703
0.9450128,-1.4930745,0.2529222,814,-5766
1.1742269,-1.8986648,0.31814164,811,-5826
1.1457031,-1.8989551,0.31479493,807,-5889
1.5715909,-2.6711218,0.43815032,804,-5952
1.5890763,-2.7701066,0.44957885,801,-6015
0.80518556,1.4078735,0.2432373,852,6023
0.8005859,1.3646485,0.23828125,856,5960
0.7849451,1.3047796,0.23023865,859,5896
0.92119294,1.4936478,0.26645583,863,5833
1.0828063,1.7130463,0.3089264,866,5770
1.1150086,1.7215889,0.31389695,870,5707
1.1355323,1.7138038,0.31592286,873,5647
1.1681954,1.7214259,0.32094055,876,5583
2.531928,3.6438773,0.687175,880,5520
2.5517547,3.587194,0.6842656,883,5457
2.6199884,3.5983083,0.69442004,886,5394
2.6594458,3.5688872,0.6968947,889,5330
2.7085373,3.5561461,0.7027504,893,5270
2.7746627,3.5606894,0.71211,896,5207
2.8291054,3.5487568,0.71852964,899,5143
2.9116387,3.5706441,0.7318959,902,5080
2.9729278,3.564444,0.7398254,905,5017
3.0004702,3.5211847,0.74003786,908,4956
3.0682642,3.5209398,0.74959993,911,4893
3.106805,3.4864407,0.7519095,914,4829
2.307262,2.5320792,0.5533066,917,4765
2.3003173,2.4709625,0.54721254,920,4704
2.3511672,2.4701014,0.5544997,923,4641
2.4608674,2.5285096,0.5755043,926,4577
2.7182937,2.73176,0.6304153,929,4514
2.6591969,2.6157074,0.6121967,932,4452
2.7021422,2.5995116,0.6171753,934,4389
2.7306702,2.5691285,0.61879885,937,4325
2.740815,2.5216973,0.61645585,939,4261
2.7748735,2.4984603,0.619937,942,4199
2.8281617,2.490088,0.62730163,945,4136
3.7787545,3.2530146,0.8321127,947,4072
3.8283973,3.224378,0.837883,950,4010
3.2167144,2.6484902,0.6992241,952,3946
3.1458569,2.5320067,0.6793341,954,3882
3.1263616,2.4609215,0.6712276,957,3820
3.1104681,2.3927612,0.6635358,959,3756
3.085476,2.3192742,0.65413284,961,3693
3.0903466,2.2708683,0.65161777,964,3630
3.0512092,2.190215,0.63961214,966,3567
3.0424159,2.134086,0.6345078,968,3504
3.0373092,2.0804205,0.6298709,970,3440
3.039623,2.0326426,0.6269003,972,3377
3.0243409,1.974993,0.6207504,975,3314
4.1969805,2.6746445,0.85687256,976,3250
4.192175,2.6075912,0.8520731,979,3188
4.1407313,2.5120978,0.83741593,980,3124
4.1548615,2.4589722,0.8365051,982,3061
4.0238943,2.3213835,0.8063617,984,2998
3.2546024,1.8303452,0.64944,986,2935
3.2746117,1.7939117,0.6505966,988,2871
3.232976,1.7253588,0.63971555,990,2808
3.190297,1.6579163,0.6289032,992,2745
3.1776874,1.6067157,0.6237552,993,2682
3.1772218,1.5630482,0.62140137,995,2619
3.1895652,1.5258157,0.6216327,997,2556
2.6076648,1.2124487,0.50641966,998,2493
2.6163654,1.1812831,0.5062642,1000,2429
3.0800447,1.3500339,0.5940399,1001,2366
3.1035926,1.3199127,0.5967201,1003,2303
3.1223593,1.2875061,0.59842867,1004,2240
2.8435886,1.1360687,0.54335785,1006,2177
3.0854003,1.1935546,0.5878565,1007,2114
3.4624429,1.2957088,0.6577667,1008,2051
2.4765465,0.8957756,0.46923524,1010,1988
2.4768038,0.86510026,0.4680504,1011,1925
2.4814112,0.83636415,0.46782166,1012,1862
2.4997027,0.8119675,0.4700693,1014,1799
2.49441,0.77985764,0.46791458,1015,1736
2.5026746,0.75247145,0.46848175,1016,1673
2.4587646,0.709668,0.45925292,1017,1609
2.3667018,0.6550441,0.44116303,1018,1547
2.3879776,0.6327853,0.4442749,1019,1484
2.3756368,0.6016031,0.4411908,1020,1421
2.324622,0.56152225,0.4309305,1021,1357
2.3114464,0.53145325,0.42775145,1022,1294
2.307495,0.50375974,0.42626953,1023,1231
2.2742944,0.4703003,0.4194531,1023,1168
2.2454612,0.43863374,0.41358718,1024,1105
2.2501442,0.413871,0.413871,1025,1042
2.1914442,0.378161,0.4025763,1026,979
2.190587,0.35323837,0.4019609,1026,916
2.296477,0.34440672,0.42089355,1027,852
2.392666,0.3318985,0.43813598,1028,789
2.4547498,0.31299347,0.44907424,1028,726
2.516613,0.2927208,0.4599449,1028,663
2.4609668,0.25873002,0.449458,1029,600
2.463653,0.23163666,0.4496115,1029,537
2.4513245,0.20324707,0.44708252,1030,473
2.4141302,0.17334412,0.44000426,1030,410
2.4011261,0.14579864,0.43739593,1030,347
2.4221964,0.1202861,0.44112426,1030,284
2.4184844,0.09339111,0.44030458,1031,221
2.3848891,0.06579056,0.43411407,1031,158
2.3215406,0.03838745,0.42247802,1031,94
2.2972329,0.012684021,0.4180739,1031,31
2.2824755,-0.012602539,0.4153882,1031,-31
2.2920294,-0.037899476,0.41710755,1031,-94
2.3553855,-0.064976655,0.4287436,1031,-158
2.374244,-0.09168274,0.4322502,1031,-221
2.353412,-0.11687027,0.42859742,1030,-284
2.327472,-0.1413263,0.4239789,1030,-347
2.2669272,-0.16277435,0.41317475,1030,-410
2.7552886,-0.2284497,0.50252074,1030,-473
2.7526302,-0.25880677,0.50234926,1029,-537
2.7447364,-0.2885637,0.5012842,1029,-600
2.7316246,-0.31772995,0.49924117,1028,-663
2.703641,-0.34472838,0.4946066,1028,-726
2.5729687,-0.3569092,0.47115234,1028,-789
2.5251517,-0.37870148,0.46280456,1027,-852
2.5208752,-0.40649825,0.46256697,1026,-916
2.72476,-0.47019136,0.5005484,1026,-979
2.724368,-0.5010954,0.5010954,1025,-1042
2.6897247,-0.52541715,0.49541518,1024,-1105
2.6212206,-0.542041,0.4834375,1023,-1168
2.58151,-0.5635812,0.47688904,1023,-1231
2.3498108,-0.540274,0.43485108,1022,-1294
2.3485377,-0.5672992,0.43536392,1021,-1357
2.337474,-0.5919388,0.4341034,1020,-1421
2.3404083,-0.6201801,0.4354248,1019,-1484
2.3240159,-0.64322966,0.43320617,1018,-1547
2.316913,-0.6687256,0.43275756,1017,-1609
2.3141491,-0.69578815,0.4331912,1016,-1673
2.3065073,-0.7211113,0.43266678,1015,-1736
2.2703292,-0.7374611,0.42693558,1014,-1799
2.25286,-0.7593306,0.4247328,1012,-1862
2.2491052,-0.7855694,0.42502135,1011,-1925
2.2543516,-0.815407,0.42713562,1010,-1988
2.2314544,-0.83505064,0.42391357,1008,-2051
2.2222228,-0.8596436,0.42339662,1007,-2114
2.2126958,-0.8840149,0.4228058,1006,-2177
2.1847413,-0.9008789,0.41872558,1004,-2240
2.1747804,-0.9249023,0.41813964,1003,-2303
2.16009,-0.9468027,0.41661072,1001,-2366
1.2790123,-0.57747114,0.24748763,1000,-2429
1.2815065,-0.5958438,0.24887405,998,-2493
1.2127455,-0.58015,0.23635894,997,-2556
1.1621826,-0.57174087,0.22729981,995,-2619
1.1383417,-0.57557315,0.22344758,993,-2682
1.1318998,-0.5882196,0.2231314,992,-2745
1.1254581,-0.600629,0.22269669,990,-2808
1.1102576,-0.608226,0.22058487,988,-2871
1.0991797,-0.61816406,0.21933594,986,-2935
1.0923828,-0.6301953,0.21890625,984,-2998
1.0811119,-0.6398346,0.21766205,982,-3061
1.0825717,-0.6567743,0.21893783,980,-3124
1.1045251,-0.68703,0.22449829,979,-3188
1.121965,-0.71500397,0.22906494,976,-3250
1.1717774,-0.7652087,0.24050903,975,-3314
2.224414,-1.4874998,0.45876938,972,-3377
2.187513,-1.4983484,0.45364198,970,-3440
2.1829536,-1.5312209,0.45526353,968,-3504
2.1662784,-1.5549953,0.45410782,966,-3567
2.1370263,-1.5703434,0.45060456,964,-3630
2.0136375,-1.5136005,0.42689896,961,-3693
1.9733498,-1.5180206,0.42096177,959,-3756
1.9641453,-1.5460808,0.4217006,957,-3820
2.024257,-1.6292644,0.43712953,954,-3882
2.0594587,-1.6956606,0.4476689,952,-3946
2.05187,-1.7281396,0.44907227,950,-4010
1.9921623,-1.7149919,0.43869048,947,-4072
1.9508393,-1.7176392,0.43270674,945,-4136
1.9574405,-1.7624543,0.43731353,942,-4199
1.9675784,-1.810278,0.4425418,939,-4261
1.940213,-1.8254334,0.43967286,937,-4325
1.895055,-1.8230786,0.43283477,934,-4389
1.9451532,-1.9133415,0.44781053,932,-4452
1.9490967,-1.9587524,0.45202637,929,-4514
1.9342761,-1.9874438,0.45235443,926,-4577
1.9326526,-2.0304163,0.4557971,923,-4641
1.896753,-2.0374603,0.45121032,920,-4704
1.8617675,-2.0431762,0.44647217,917,-4765
1.1593046,-1.3009658,0.2805751,914,-4829
1.0865418,-1.2468445,0.2654503,911,-4893
1.0599313,-1.2438763,0.26142213,908,-4956
1.0531754,-1.2627232,0.2620871,905,-5017
1.0298401,-1.2629287,0.25886995,902,-5080
1.022049,-1.2820319,0.25957763,899,-5143
1.0017929,-1.285588,0.25710756,896,-5207
0.99362916,-1.3045752,0.25780457,893,-5270
1.0065161,-1.3507109,0.26375258,889,-5330
0.9944907,-1.3658395,0.26358673,886,-5394
0.9708696,-1.3648247,0.26034346,883,-5457
0.961456,-1.3836995,0.26094285,880,-5520
1.0017067,-1.4760921,0.2752008,876,-5583
1.6732723,-2.5253887,0.46553054,873,-5647
1.6738563,-2.5844576,0.4712236,870,-5707
1.6611835,-2.6280637,0.4739383,866,-5770
1.6399829,-2.659114,0.47436646,863,-5833
1.6030209,-2.6646311,0.47019517,859,-5896
1.57115,-2.6781225,0.46762696,856,-5960
1.5735486,-2.7513626,0.47535095,852,-6023
0.7664526,1.3421041,0.24591629,904,6027
0.80269074,1.3722931,0.25411743,908,5967
0.77201414,1.2869995,0.24088623,911,5904
0.7939203,1.2908466,0.24420029,915,5840
0.9291458,1.4739215,0.28192168,919,5777
1.1113358,1.7204491,0.33270416,922,5713
1.135653,1.7160782,0.33558014,926,5650
1.1534057,1.703925,0.33691636,929,5590
2.4846313,3.5845056,0.7169281,933,5527
2.5381591,3.5765646,0.7235605,936,5463
2.594757,3.571888,0.7310387,940,5400
2.6545522,3.570233,0.73937136,943,5336
2.7244,3.584935,0.7513136,947,5276
2.7969837,3.5971088,0.7630444,950,5213
2.85181,3.5848207,0.769725,953,5149
2.909748,3.5755875,0.7772644,957,5086
2.9565835,3.5555718,0.78262085,960,5025
2.98927,3.514713,0.78352296,963,4961
3.0470974,3.5033212,0.7911328,966,4898
2.2306864,2.5078208,0.57370013,969,4834
2.2537658,2.479962,0.5748291,973,4773
2.3379748,2.5159044,0.5910078,976,4709
2.433507,2.5609643,0.60971695,979,4646
3.2993317,3.395672,0.8197006,982,4582
2.7173693,2.737561,0.6700232,985,4521
2.687826,2.6480858,0.6573462,988,4457
2.6814606,2.5836382,0.650495,990,4393
2.705217,2.550959,0.65170825,994,4331
2.7297065,2.5170918,0.6525708,996,4267
2.7500048,2.4797778,0.652561,999,4204
2.7847009,2.455194,0.6560223,1002,4140
2.829457,2.4409003,0.66222566,1004,4078
3.8797793,3.2722168,0.90174747,1007,4014
3.914704,3.2297409,0.9042645,1010,3952
3.9579208,3.191714,0.9082254,1012,3888
3.1270733,2.464675,0.7128868,1015,3824
3.1104903,2.3974338,0.7051419,1017,3762
3.070087,2.3120394,0.6916693,1020,3698
3.0392797,2.2373564,0.6809091,1022,3635
3.0360107,2.183075,0.6762024,1025,3571
3.0357428,2.1319,0.67224455,1027,3507
3.0342987,2.081836,0.66849303,1029,3445
3.0121682,2.017596,0.6598993,1031,3381
2.9884799,1.9546921,0.65160096,1034,3318
3.005825,1.9184799,0.6519203,1036,3254
2.9554377,1.8411932,0.63803834,1038,3192
3.5130982,2.1355402,0.7550482,1040,3129
4.14997,2.4595354,0.8875044,1042,3065
4.1124573,2.3768234,0.8757028,1044,3002
4.0442944,2.2776074,0.8571997,1046,2938
3.7843118,2.0768366,0.79874206,1048,2875
3.2472744,1.7360398,0.6827585,1050,2812
3.2489166,1.6905053,0.68013537,1052,2748
3.2055984,1.6236017,0.66846967,1053,2686
3.1613817,1.5577158,0.6568707,1055,2623
3.1736884,1.5205823,0.6570471,1057,2560
2.5975063,1.209572,0.5358875,1059,2496
2.6106722,1.1804825,0.5365991,1060,2433
3.073375,1.349096,0.6295781,1062,2369
3.0970078,1.318972,0.63236237,1063,2306
3.1020348,1.2809377,0.631454,1065,2243
2.8421714,1.1370397,0.5767427,1066,2180
2.8589208,1.1073487,0.5784302,1068,2117
2.4152756,0.90522766,0.4874611,1070,2054
2.434287,0.88181794,0.48988098,1071,1991
2.439139,0.8531769,0.48951325,1072,1927
2.4388995,0.8232275,0.48837158,1074,1865
2.4571173,0.7992413,0.49071717,1075,1801
2.4469547,0.76608217,0.48746338,1076,1738
2.4410486,0.73483294,0.48529541,1077,1675
2.3921897,0.69153947,0.47461623,1079,1612
2.3522866,0.65203947,0.46570998,1080,1549
2.3260345,0.6172104,0.45959932,1081,1486
2.3468955,0.59511155,0.46286452,1082,1422
2.2816155,0.55184144,0.44914612,1083,1359
2.2779522,0.52440184,0.44763002,1084,1296
2.2834723,0.49927124,0.4480658,1085,1233
2.269613,0.47001222,0.44458863,1085,1169
2.2649446,0.44306335,0.44306335,1086,1106
2.457935,0.4527223,0.48013887,1087,1043
2.2498603,0.3887535,0.43891755,1088,980
2.1860452,0.3529631,0.4260469,1089,917
2.1654847,0.32516298,0.4215277,1089,853
2.227313,0.30938202,0.4331488,1090,790
2.3815022,0.30405807,0.46261597,1090,727
2.4138954,0.2811264,0.46859437,1091,664
2.4217236,0.25497803,0.46969238,1091,601
2.4341483,0.22910614,0.47173828,1092,537
2.436504,0.2022821,0.47189027,1092,474
2.399382,0.17248993,0.46445924,1092,411
2.3913012,0.14542602,0.4627124,1093,348
2.4124036,0.11996704,0.4665802,1093,284
2.4135296,0.09331604,0.46665528,1093,221
2.4144306,0.06666504,0.46673036,1093,158
2.414956,0.04001404,0.46673036,1093,94
2.3661659,0.013091431,0.4573175,1093,31
2.3514385,-0.013009949,0.45447114,1093,-31
2.3413293,-0.038794097,0.45250076,1093,-94
2.3506346,-0.064903565,0.45439804,1093,-158
2.3644743,-0.09141937,0.4571704,1093,-221
2.3045318,-0.11460266,0.44571686,1093,-284
2.3226984,-0.14125396,0.44943786,1093,-348
2.321035,-0.1668576,0.44929323,1092,-411
2.4316113,-0.20187591,0.47094268,1092,-474
2.4634752,-0.23186645,0.47742188,1092,-537
2.5047262,-0.2637172,0.4857907,1091,-601
2.6235874,-0.30554748,0.50930053,1091,-664
2.6201394,-0.33452606,0.50897217,1090,-727
2.5531425,-0.35464096,0.49651337,1090,-790
2.5247803,-0.37911376,0.4914673,1089,-853
2.6901443,-0.4343559,0.52429277,1089,-917
2.7143476,-0.4690123,0.5295328,1088,-980
2.7090404,-0.49897292,0.52919036,1087,-1043
2.6890192,-0.5260199,0.5260199,1086,-1106
2.6254423,-0.5437006,0.51429105,1085,-1169
2.6048853,-0.5695468,0.5111339,1085,-1233
2.555518,-0.5882996,0.5021732,1084,-1296
2.4009469,-0.58070344,0.47263703,1083,-1359
2.3944998,-0.60718274,0.47225326,1082,-1422
2.3497696,-0.62350845,0.4642891,1081,-1486
2.3428206,-0.6494156,0.4638359,1080,-1549
2.3166964,-0.6697157,0.4596382,1079,-1612
2.3140576,-0.6966046,0.46004882,1077,-1675
2.2969499,-0.71911925,0.45758057,1076,-1738
2.2702644,-0.7384625,0.45340025,1075,-1801
2.2480695,-0.7588147,0.4501593,1074,-1865
2.2443786,-0.7850525,0.45042664,1072,-1927
2.2541406,-0.81656003,0.45362794,1071,-1991
2.2450562,-0.84143066,0.4531067,1070,-2054
2.2358227,-0.8660034,0.45236206,1068,-2117
2.2126052,-0.88517535,0.4489891,1066,-2180
2.193679,-0.9058461,0.446548,1065,-2243
2.192772,-0.9338707,0.44773102,1063,-2306
2.1824112,-0.95799637,0.44706497,1062,-2369
1.2762291,-0.5770798,0.26231688,1060,-2433
1.2653375,-0.5892255,0.2610498,1059,-2496
1.2322421,-0.59039366,0.25511047,1057,-2560
1.203706,-0.59310514,0.2501056,1055,-2623
1.1883955,-0.6019098,0.24781846,1053,-2686
1.1730988,-0.61039716,0.24557906,1052,-2748
1.1705796,-0.6258087,0.24612121,1050,-2812
1.1465,-0.62920105,0.24198791,1048,-2875
1.1181788,-0.62971985,0.2370012,1046,-2938
1.115387,-0.6446457,0.23750946,1044,-3002
1.1083509,-0.65687895,0.23702973,1042,-3065
1.1093994,-0.6743811,0.23843628,1040,-3129
