4.2167635,-0.89392334,1.4254004,1829,-1196
4.2067876,-0.94144595,1.4241534,1828,-1261
4.2008796,-0.9900577,1.4247509,1826,-1326
4.171346,-1.0329285,1.4173768,1825,-1390
4.164343,-1.0812112,1.4176986,1823,-1455
4.2439785,-1.1531198,1.4475815,1821,-1520
4.158151,-1.1801285,1.4210418,1819,-1584
3.9993372,-1.183778,1.3694634,1817,-1648
3.9952881,-1.2318604,1.3713745,1816,-1713
4.117189,-1.3206497,1.4167373,1814,-1778
3.9987817,-1.3326114,1.3794409,1812,-1843
4.0648775,-1.405777,1.405777,1809,-1907
4.067309,-1.4580395,1.4101872,1807,-1972
4.0690465,-1.5104288,1.4145817,1805,-2036
3.9413671,-1.5136486,1.3739502,1802,-2100
3.9288492,-1.560118,1.3738697,1800,-2165
3.9162934,-1.6061447,1.373378,1797,-2229
3.9071276,-1.6542615,1.3746948,1795,-2294
3.9845245,-1.7405274,1.4066473,1792,-2359
3.904541,-1.7582245,1.3831787,1790,-2424
3.9325242,-1.8246133,1.3979992,1787,-2489
4.006849,-1.9142331,1.4296243,1784,-2553
3.9343743,-1.9343023,1.4089884,1781,-2618
3.9130132,-1.9787109,1.4065993,1778,-2682
3.9039056,-2.0295684,1.4087842,1775,-2746
3.877428,-2.0713136,1.4047245,1772,-2811
3.854753,-2.1149735,1.4020485,1768,-2875
3.8018975,-2.1428216,1.3893188,1765,-2940
3.8074312,-2.2022936,1.3971192,1762,-3004
3.8032763,-2.2579784,1.4022803,1759,-3069
3.790853,-2.3081799,1.4039723,1755,-3133
3.7690423,-2.3540337,1.4029205,1752,-3198
3.7516198,-2.401413,1.4027957,1748,-3262
3.7288146,-2.446785,1.4015869,1744,-3327
3.6065514,-2.425543,1.3629692,1741,-3392
3.659022,-2.5199904,1.3894823,1736,-3455
3.7441406,-2.6415527,1.429834,1733,-3520
3.7303224,-2.6953638,1.4327027,1729,-3585
3.6504145,-2.7009525,1.4101895,1725,-3649
3.6167145,-2.7397156,1.4056625,1721,-3714
3.605294,-2.79552,1.4097092,1717,-3778
3.5744011,-2.8366134,1.4063575,1712,-3843
3.543071,-2.8772697,1.403006,1708,-3907
3.4673264,-2.8808293,1.3819232,1704,-3972
3.4356706,-2.9202552,1.3783259,1699,-4036
3.3963645,-2.9529734,1.371813,1695,-4100
3.2995672,-2.9343727,1.3420513,1690,-4164
3.2072754,-2.9169617,1.3137387,1685,-4228
3.1543121,-2.9337616,1.3014679,1681,-4292
3.0840173,-2.9331737,1.2818985,1676,-4356
3.017807,-2.9346497,1.2638576,1671,-4419
2.9334815,-2.919243,1.239126,1666,-4486
2.8983505,-2.948917,1.233873,1661,-4549
2.8696728,-2.9850292,1.2316114,1656,-4612
2.7649965,-2.9406273,1.196525,1651,-4676
2.7235239,-2.9611313,1.1884211,1645,-4739
2.648302,-2.946507,1.16673,1640,-4805
2.5816956,-2.9367409,1.1474617,1635,-4868
2.5437264,-2.9584386,1.1408001,1629,-4931
2.46083,-2.9292815,1.1150655,1624,-4996
2.4294538,-2.9568875,1.1111739,1619,-5059
2.4007215,-2.9878728,1.1086715,1613,-5121
2.3225002,-2.9593089,1.0844865,1608,-5187
2.2820618,-2.9737976,1.0764039,1602,-5249
2.225437,-2.9698017,1.0619476,1596,-5315
2.179541,-2.9752614,1.0510906,1590,-5377
2.1207714,-2.965564,1.0352871,1585,-5443
2.078171,-2.9735,1.0259122,1579,-5505
2.0221038,-2.9609704,1.0098015,1572,-5567
2.0021439,-3.0046463,1.013031,1567,-5632
1.9386914,-2.978531,0.9928812,1560,-5694
1.8922262,-2.981056,0.98257524,1555,-5759
1.847882,-2.9816053,0.97187376,1548,-5821
1.8018737,-2.9827502,0.96166855,1542,-5886
1.7581885,-2.982062,0.9510739,1536,-5947
1.7077409,-2.9734936,0.938113,1530,-6013
1.6669562,-2.975644,0.92895156,1523,-6074
1.6241642,-2.978439,0.92004865,1517,-6139
0.40404052,0.74470216,0.23783202,1568,6151
0.35805678,0.6433443,0.20763886,1574,6090
0.3461937,0.60559005,0.1975563,1581,6024
0.36515808,0.6221466,0.20514679,1587,5958
0.3617697,0.60152376,0.20050049,1594,5897
0.38070267,0.61783826,0.20821945,1600,5835
0.3902051,0.61731446,0.21036378,1606,5770
0.38628235,0.5967334,0.20566346,1613,5708
0.3956221,0.59610456,0.20778061,1619,5642
0.39382753,0.5796692,0.20439911,1626,5580
0.4277289,0.61434996,0.21916077,1631,5515
0.46208772,0.6485388,0.23409607,1638,5452
0.46367738,0.63526976,0.23205139,1643,5387
0.48188233,0.6453296,0.23858276,1650,5325
0.48875245,0.63984376,0.23945434,1656,5262
0.4900009,0.62645143,0.23736359,1661,5196
0.49968,0.6246191,0.2396344,1667,5134
0.49420318,0.60408694,0.23471542,1673,5071
0.5286291,0.6312213,0.24841003,1678,5005
0.56338793,0.6578981,0.26229203,1684,4942
0.5861884,0.6694592,0.27044585,1690,4879
0.59653044,0.66629595,0.2727844,1696,4816
0.5652466,0.61691666,0.25600052,1701,4750
0.5718689,0.61042786,0.2568016,1706,4686
0.5718271,0.5969841,0.25465867,1712,4623
0.61500853,0.62797976,0.27166504,1717,4559
0.6525118,0.6510393,0.28568923,1722,4493
0.66635513,0.65019834,0.28951263,1727,4429
0.669924,0.6392563,0.2888568,1732,4365
0.66987306,0.6250488,0.2866699,1737,4301
0.6872131,0.6270195,0.29195252,1742,4237
0.69755614,0.62227964,0.2942572,1747,4173
0.72587585,0.63306856,0.30406648,1752,4109
0.7436317,0.6339935,0.3093956,1756,4044
0.7614966,0.6345752,0.3147168,1761,3980
0.8053586,0.6558694,0.33064574,1765,3915
0.8087833,0.64362276,0.32992372,1770,3851
0.8120434,0.6313953,0.32919434,1774,3786
0.83030593,0.63064086,0.33453506,1778,3721
0.8407776,0.6241547,0.33693543,1783,3658
0.9207933,0.6675195,0.3668367,1787,3593
0.9358902,0.6623676,0.37067872,1791,3528
0.9431346,0.6515561,0.37145096,1795,3463
0.96585387,0.65152895,0.37851334,1799,3400
0.99285126,0.65345764,0.38700104,1803,3335
1.0240234,0.6573828,0.39703125,1807,3269
1.0511925,0.65839416,0.40566194,1811,3206
1.0543457,0.64377135,0.40482178,1814,3140
1.057167,0.6293602,0.4041342,1818,3076
1.0721407,0.62211317,0.40805146,1822,3012
1.1616719,0.6564499,0.44004866,1825,2947
1.2061799,0.66380155,0.45498353,1828,2882
1.2425908,0.6657756,0.46682695,1832,2818
1.2876223,0.6713827,0.48181367,1835,2753
1.316065,0.6674048,0.49049318,1838,2689
1.3530624,0.6670935,0.5023581,1841,2624
1.3987412,0.67010653,0.517424,1844,2559
1.4533237,0.67609286,0.53560334,1847,2494
1.4995402,0.67704606,0.5506592,1850,2429
1.5372986,0.6732028,0.56257784,1853,2364
1.601145,0.67994905,0.58413345,1856,2300
1.669898,0.68681854,0.60723037,1858,2235
1.7300491,0.6889613,0.62725526,1861,2171
1.8082848,0.69635344,0.65354127,1863,2106
1.9267623,0.71719664,0.69441587,1866,2041
1.9567305,0.7032869,0.7032869,1868,1976
1.9821979,0.68725294,0.71057373,1871,1912
1.9805837,0.661675,0.7081732,1873,1847
1.8840488,0.60579896,0.6719406,1875,1782
1.8949494,0.5859581,0.6743793,1877,1718
2.019258,0.5993675,0.7168373,1879,1653
2.198617,0.6257126,0.7789348,1881,1588
2.3012073,0.6269238,0.81364745,1883,1523
2.4361145,0.6341528,0.8595807,1885,1459
2.5622396,0.63611114,0.90235656,1887,1394
2.6335077,0.62222105,0.9256946,1888,1329
2.8200574,0.63276017,0.98974246,1890,1264
2.956506,0.6282161,1.0356839,1891,1199
3.0187821,0.6058424,1.055928,1892,1134
3.0623147,0.5786964,1.069608,1894,1070
3.9950364,0.70827943,1.3937787,1895,1005
4.058478,0.67225343,1.4139359,1896,940
4.1215897,0.63482577,1.434246,1897,875
4.1329994,0.58879244,1.4366804,1899,810
4.1438847,0.5425183,1.4388471,1899,745
4.140162,0.49445617,1.4363992,1900,681
4.145276,0.44762146,1.4369376,1901,616
3.2088425,0.30980134,1.1115177,1902,551
3.2025452,0.27268067,1.1087768,1903,486
3.2242017,0.23775512,1.1154034,1903,421
3.2313194,0.20151977,1.1172432,1903,356
3.2380254,0.16517761,1.1192929,1904,292
3.2348733,0.12824936,1.1178703,1904,227
3.2218506,0.091264956,1.1131827,1905,162
3.1896057,0.05417633,1.101757,1905,97
3.2041955,0.018104553,1.1067572,1905,32
4.154112,-0.023471832,1.4348667,1905,-32
4.1535754,-0.07054962,1.4347326,1905,-97
4.171399,-0.11816269,1.4412614,1905,-162
4.1699166,-0.16531998,1.440992,1904,-227
4.1584554,-0.21213043,1.4374592,1904,-292
4.1417494,-0.25829834,1.4320285,1903,-356
4.143382,-0.30553618,1.4333912,1903,-421
4.14918,-0.35328186,1.4365182,1903,-486
4.1122117,-0.39701813,1.4244375,1902,-551
4.117077,-0.4445764,1.4271625,1901,-616
4.1026096,-0.4899713,1.4233707,1900,-681
4.092321,-0.5357675,1.4209428,1899,-745
4.076832,-0.5807907,1.4171559,1899,-810
4.0748596,-0.62762815,1.4179846,1897,-875
4.0724726,-0.6745715,1.4188114,1896,-940
4.0881605,-0.72478944,1.4262677,1895,-1005
4.0567536,-0.7666191,1.4169465,1894,-1070
4.0528655,-0.81337374,1.4176362,1892,-1134
4.0391703,-0.85826707,1.4149485,1891,-1199
4.0246973,-0.9030554,1.4125293,1890,-1264
4.014718,-0.9485608,1.4111987,1888,-1329
4.0040736,-0.9940662,1.4101343,1887,-1394
3.9930298,-1.0394385,1.4089367,1885,-1459
3.9997175,-1.0896534,1.4141967,1883,-1523
3.9784498,-1.1322418,1.4095011,1881,-1588
3.9795268,-1.1812254,1.4127333,1879,-1653
3.9662786,-1.2264564,1.411529,1877,-1718
3.957404,-1.2724676,1.4113967,1875,-1782
3.9252384,-1.3113468,1.4034997,1873,-1847
3.9688702,-1.3760573,1.4227514,1871,-1912
3.9803197,-1.4306041,1.4306041,1868,-1976
3.960074,-1.474054,1.4272326,1866,-2041
3.983532,-1.5340207,1.4397082,1863,-2106
3.9355316,-1.5672555,1.426886,1861,-2171
3.9008117,-1.6043793,1.4184647,1858,-2235
3.8872485,-1.6507754,1.4181551,1856,-2300
3.8693023,-1.6944172,1.4159797,1853,-2364
3.8374403,-1.7326136,1.4091797,1850,-2429
3.8138998,-1.7742436,1.4055626,1847,-2494
3.7984169,-1.8197387,1.4051148,1844,-2559
3.7868729,-1.8670228,1.4059708,1841,-2624
3.7831576,-1.9185205,1.4099708,1838,-2689
3.761877,-1.9614908,1.4076517,1835,-2753
3.73614,-2.00181,1.4036244,1832,-2818
3.7017243,-2.0371842,1.3963287,1828,-2882
3.6627805,-2.0698028,1.3874844,1825,-2947
3.664174,-2.1261492,1.3945667,1822,-3012
3.66539,-2.182106,1.4012066,1818,-3076
3.6496582,-2.2284393,1.4013062,1814,-3140
3.6328568,-2.27537,1.4019427,1811,-3206
3.6120827,-2.3188152,1.4004657,1807,-3269
3.598093,-2.3681304,1.4024918,1803,-3335
3.567746,-2.4066682,1.3981819,1799,-3400
3.5259929,-2.4359007,1.3887025,1795,-3463
3.541626,-2.5065527,1.4027344,1791,-3528
3.5290656,-2.5583594,1.4059515,1787,-3593
3.5006921,-2.598753,1.4028766,1783,-3658
3.484252,-2.646388,1.4038253,1778,-3721
3.4549441,-2.686353,1.4006,1774,-3786
3.4513056,-2.746519,1.4078772,1770,-3851
3.424621,-2.7889495,1.4060028,1765,-3915
3.4194126,-2.8494866,1.4131994,1761,-3980
3.3953137,-2.8947217,1.412655,1756,-4044
3.3131561,-2.8895504,1.3878677,1752,-4109
3.2457714,-2.8955054,1.3691968,1747,-4173
3.196422,-2.9164445,1.3579535,1742,-4237
3.136541,-2.926661,1.3422722,1737,-4301
3.0768158,-2.9359658,1.3266568,1732,-4365
3.0173926,-2.9442315,1.3109726,1727,-4429
2.9346125,-2.9279902,1.2848614,1722,-4493
2.8912086,-2.9521873,1.277121,1717,-4559
2.8393033,-2.9642158,1.2644612,1712,-4623
2.754774,-2.9405181,1.23705,1706,-4686
2.7131836,-2.9612,1.2288024,1701,-4750
2.638132,-2.946667,1.2063782,1696,-4816
2.5842712,-2.9513793,1.1922882,1690,-4879
2.527464,-2.9514544,1.1766913,1684,-4942
2.4648871,-2.9432528,1.158284,1678,-5005
2.4164414,-2.9537256,1.1476576,1673,-5071
2.3787162,-2.9734864,1.1407745,1667,-5134
2.3201249,-2.9662097,1.1239023,1661,-5196
2.272117,-2.9745116,1.1131777,1656,-5262
2.2114956,-2.961602,1.0949244,1650,-5325
2.1770217,-2.982669,1.0895096,1643,-5387
2.1127987,-2.965307,1.0703549,1638,-5452
2.0646143,-2.96542,1.0578722,1631,-5515
2.0176916,-2.969812,1.0471954,1626,-5580
1.9913864,-3.0005264,1.0458755,1619,-5642
1.9288018,-2.979635,1.0269276,1613,-5708
1.8868469,-2.9850402,1.0172195,1606,-5770
1.8303982,-2.9705338,1.001108,1600,-5835
1.7964592,-2.9870186,0.995636,1594,-5897
1.7576276,-2.994599,0.9874399,1587,-5958
1.7047055,-2.982009,0.9727945,1581,-6024
1.6685915,-2.9980683,0.9676242,1574,-6090
1.6345276,-3.0126586,0.96213865,1568,-6151
0.39459288,0.73100525,0.24111664,1618,6164
0.3465132,0.62566084,0.20855361,1625,6102
0.35118836,0.61726135,0.20796692,1632,6036
0.34560806,0.5925021,0.20177017,1639,5974
0.36209428,0.6047914,0.20819916,1645,5909
0.37347764,0.60879105,0.21189575,1652,5847
0.385426,0.61237764,0.21552338,1658,5781
0.38151902,0.5918491,0.21066651,1665,5719
0.3881584,0.5872508,0.21140671,1671,5653
0.39973724,0.59071624,0.2151242,1678,5591
0.43326142,0.6254608,0.23043549,1684,5528
0.44858003,0.63194734,0.23557433,1690,5463
0.4637352,0.63841325,0.2408432,1697,5400
0.4705078,0.63310087,0.2417244,1703,5338
0.48052764,0.6312387,0.24397461,1709,5271
0.48430482,0.6219727,0.24338607,1715,5209
0.48795104,0.61267275,0.24276184,1722,5146
0.50690186,0.62161744,0.2494519,1727,5080
0.5319086,0.63779116,0.25923705,1733,5017
0.5635013,0.66072756,0.27207243,1739,4954
0.58936465,0.67582583,0.28195983,1745,4890
0.5874405,0.6580971,0.27825087,1750,4824
0.56881666,0.6231839,0.26708266,1756,4761
0.5657602,0.60616976,0.26337892,1762,4697
0.5657135,0.59277225,0.26113892,1767,4633
0.6120044,0.62716556,0.28022826,1773,4570
0.64570314,0.6470508,0.2932617,1778,4505
0.66320115,0.6493355,0.2985878,1783,4439
0.68053436,0.65156066,0.30405763,1788,4375
0.6667383,0.6241992,0.29566407,1793,4311
0.68753725,0.6293378,0.30266112,1798,4246
0.70147157,0.6277533,0.30656525,1803,4182
0.7190314,0.62901443,0.31203827,1808,4117
0.7367047,0.62996703,0.31750488,1813,4053
0.76542205,0.63971555,0.3276764,1818,3988
0.79053575,0.64615476,0.3364296,1823,3926
0.80500853,0.6429274,0.34035385,1828,3861
0.80828613,0.6306702,0.33957642,1832,3796
0.83030397,0.63281554,0.34667054,1836,3731
0.84483033,0.6288464,0.3506012,1841,3666
0.886024,0.64440036,0.3657312,1846,3602
0.92017275,0.65332335,0.37761292,1850,3537
0.939016,0.65074706,0.38314497,1853,3472
0.9655545,0.65336245,0.39203247,1858,3408
0.99648744,0.6578009,0.40236327,1862,3342
1.0154709,0.6541923,0.40804824,1866,3279
1.054753,0.66255647,0.42161223,1870,3213
1.0578187,0.6480438,0.42088866,1874,3149
1.0568451,0.6309174,0.4183899,1877,3083
1.06772,0.62123704,0.4208354,1881,3019
1.1566981,0.65572095,0.4539409,1885,2954
1.1927637,0.6585205,0.46612793,1888,2890
1.2373792,0.6650052,0.4815555,1892,2825
1.2822528,0.67058897,0.49698853,1895,2760
1.3148217,0.66874146,0.50759035,1898,2695
1.3517196,0.6683638,0.5198061,1901,2631
1.3973132,0.6712549,0.53532225,1905,2565
1.4516748,0.6772137,0.5541028,1908,2500
1.4892001,0.6741974,0.5663364,1910,2435
1.5482233,0.6800995,0.5869614,1914,2371
1.5904156,0.67709106,0.60080385,1916,2306
1.6500009,0.6806607,0.62148285,1919,2241
1.7275977,0.6896924,0.64851046,1921,2176
1.7878348,0.69044036,0.6691913,1924,2111
1.9190805,0.71626955,0.71626955,1927,2046
1.9533997,0.7040161,0.7271118,1929,1981
1.9832703,0.689473,0.73618925,1932,1916
2.0085652,0.6727875,0.74362886,1934,1851
1.8810118,0.60660887,0.6948383,1936,1787
1.892102,0.5865234,0.6971375,1938,1722
2.0067937,0.5972754,0.7378546,1941,1657
2.2171988,0.63273925,0.81345797,1943,1592
2.2966805,0.6273201,0.84092176,1945,1527
2.4220555,0.6321506,0.885027,1947,1462
2.5522778,0.6352597,0.93070954,1948,1397
2.6370544,0.6246071,0.9597664,1950,1332
2.800047,0.6298526,1.017447,1951,1267
2.9356859,0.62556946,1.065101,1953,1202
3.0440137,0.61258364,1.1026907,1955,1137
3.0505497,0.57799256,1.1033946,1956,1072
3.9795878,0.7074939,1.437637,1957,1008
3.98705,0.6620645,1.4382917,1958,942
4.0406713,0.6239545,1.4558496,1959,877
4.061149,0.5799933,1.4616787,1961,812
4.0671296,0.5340085,1.462609,1962,748
4.072712,0.48775786,1.4632736,1963,682
4.087126,0.44252107,1.4672997,1964,617
4.0635333,0.39330918,1.457612,1964,552
3.814287,0.32551757,1.3670746,1965,487
3.733113,0.27597427,1.3372924,1965,422
4.013159,0.25084686,1.4367987,1966,357
4.025039,0.2058496,1.440686,1967,292
3.8576386,0.15339966,1.3800964,1967,227
3.8638463,0.109615326,1.3819047,1967,162
3.8741379,0.06592941,1.3856479,1967,97
4.0347104,0.022884369,1.443023,1967,32
4.0629582,-0.023044586,1.4531257,1967,-32
4.0671387,-0.06921387,1.4546777,1967,-97
4.085041,-0.1158905,1.461015,1967,-162
4.0881557,-0.16256623,1.4625657,1967,-227
4.0767627,-0.20849487,1.4591995,1967,-292
4.0836477,-0.25525284,1.4620352,1966,-357
4.085294,-0.30200958,1.4634521,1965,-422
4.0910926,-0.3491406,1.4662842,1965,-487
4.0400987,-0.39104095,1.4492059,1964,-552
4.0215816,-0.4354245,1.4437691,1964,-617
4.0072494,-0.4799179,1.4397538,1963,-682
3.983079,-0.5229727,1.432383,1962,-748
3.986547,-0.569339,1.4348282,1961,-812
3.966189,-0.612453,1.4290137,1959,-877
3.996344,-0.6636078,1.4416443,1958,-942
3.9981406,-0.71079224,1.4443393,1957,-1008
3.9902487,-0.75603884,1.443287,1956,-1072
3.9632227,-0.7975671,1.4356732,1955,-1137
3.9726236,-0.846532,1.4413141,1953,-1202
3.963285,-0.8915155,1.4401304,1951,-1267
3.9487023,-0.9352812,1.4371458,1950,-1332
3.9244702,-0.97679716,1.431091,1948,-1397
3.9136038,-1.021441,1.4300437,1947,-1462
3.965753,-1.0832142,1.4520471,1945,-1527
3.922039,-1.1192627,1.4389389,1943,-1592
3.9412708,-1.1730274,1.4491199,1941,-1657
3.9283643,-1.2177343,1.4473901,1938,-1722
3.9146595,-1.2624414,1.4460596,1936,-1787
3.896348,-1.3051178,1.4425406,1934,-1851
3.8863184,-1.3510572,1.4426001,1932,-1916
3.9156785,-1.4112324,1.4575287,1929,-1981
3.9354415,-1.4688476,1.4688476,1927,-2046
3.9059346,-1.5084251,1.4620017,1924,-2111
3.893672,-1.5544336,1.4616175,1921,-2176
3.8718276,-1.5972117,1.4583473,1919,-2241
3.8674042,-1.6464783,1.4609711,1916,-2306
3.762442,-1.6527557,1.4264145,1914,-2371
3.7273045,-1.6874421,1.4174777,1910,-2435
3.802617,-1.7739404,1.4514551,1908,-2500
3.79149,-1.8213928,1.4525512,1905,-2565
3.7161698,-1.8374766,1.4290593,1901,-2631
3.7042575,-1.8840505,1.4300381,1898,-2695
3.683334,-1.9262997,1.4276239,1895,-2760
3.6621423,-1.9681467,1.4252096,1892,-2825
3.632131,-2.0052865,1.4194243,1888,-2890
3.6429818,-2.065171,1.4296715,1885,-2954
3.6286118,-2.1112537,1.4301955,1881,-3019
3.617662,-2.1596787,1.4321808,1877,-3083
3.5529785,-2.1766357,1.4136719,1874,-3149
3.5372324,-2.2219574,1.413924,1870,-3213
3.516317,-2.2653015,1.4129671,1866,-3279
3.523295,-2.3257961,1.4226416,1862,-3342
3.4971914,-2.3664467,1.4199225,1858,-3408
3.4716315,-2.405874,1.4165236,1853,-3472
3.4487145,-2.44859,1.4152551,1850,-3537
3.429028,-2.493913,1.4154272,1846,-3602
3.4135711,-2.5408795,1.4166183,1841,-3666
3.3778274,-2.5744088,1.4103187,1836,-3731
3.379085,-2.6365516,1.4196181,1832,-3796
3.3610034,-2.684296,1.4210166,1828,-3861
3.32025,-2.71385,1.4130043,1823,-3926
3.3496327,-2.7995172,1.4339743,1818,-3988
3.322394,-2.8410277,1.4318848,1813,-4053
3.2481616,-2.841518,1.4096057,1808,-4117
3.2203922,-2.8819582,1.4074131,1803,-4182
3.1710901,-2.90266,1.3959472,1798,-4246
3.1183906,-2.9194317,1.3828454,1793,-4311
3.0589676,-2.9287324,1.3667237,1788,-4375
2.9725015,-2.9103549,1.3382858,1783,-4439
2.909027,-2.9150987,1.3212051,1778,-4505
2.8737597,-2.944951,1.3158545,1773,-4570
2.8285675,-2.963861,1.3056946,1767,-4633
2.7540166,-2.9507227,1.28208,1762,-4697
2.7026827,-2.9610038,1.26902,1756,-4761
2.6323686,-2.9489863,1.2468648,1750,-4824
2.5831726,-2.96213,1.235824,1745,-4890
2.5140827,-2.9478614,1.2138617,1739,-4954
2.4669552,-2.9580314,1.2023236,1733,-5017
2.4077837,-2.9526827,1.1848966,1727,-5080
2.3653724,-2.9699683,1.1768029,1722,-5146
2.3041167,-2.9590821,1.1579278,1715,-5209
2.2550063,-2.9622588,1.144917,1709,-5271
2.2071095,-2.9698188,1.1339072,1703,-5338
2.150045,-2.9599159,1.1166366,1697,-5400
2.0989115,-2.9568894,1.1022552,1690,-5463
2.0545855,-2.9660218,1.092757,1684,-5528
2.0174658,-2.981333,1.0857276,1678,-5591
1.975119,-2.9881878,1.0757294,1671,-5653
1.907595,-2.9592452,1.0533326,1665,-5719
1.8658704,-2.9645567,1.0433615,1658,-5781
1.82227,-2.97041,1.0338806,1652,-5847
1.773523,-2.9622436,1.019751,1645,-5909
1.7304572,-2.966654,1.0102619,1639,-5974
1.6823821,-2.9570155,0.99627393,1632,-6036
1.641868,-2.9645407,0.9881802,1625,-6102
1.6376746,-3.033883,1.0007037,1618,-6164
0.3988037,0.7426074,0.25270995,1668,6176
0.34659576,0.6289444,0.21631622,1676,6114
0.33954346,0.59972167,0.2084546,1682,6048
0.35307723,0.6081784,0.21369462,1690,5986
0.36196044,0.60820556,0.21602905,1697,5924
0.38375458,0.62828034,0.22563294,1703,5858
0.39038116,0.62383914,0.22652587,1710,5796
0.3922461,0.6110523,0.22439575,1717,5730
0.39874023,0.60652953,0.2252771,1724,5667
0.391837,0.5821143,0.21871902,1731,5605
0.43090805,0.6244904,0.23737426,1737,5539
0.45681915,0.6467911,0.2487619,1744,5476
0.4636835,0.6415225,0.2496991,1750,5414
0.46809083,0.63206863,0.24900055,1756,5347
0.46905777,0.6190846,0.24687774,1763,5285
0.48734665,0.6287218,0.25382796,1769,5221
0.4973657,0.62659055,0.2561426,1775,5155
0.4830786,0.59495515,0.2463298,1781,5092
0.5320015,0.6406288,0.26865768,1788,5029
0.56657714,0.6671179,0.28342897,1794,4965
0.5772217,0.6639122,0.28578797,1799,4899
0.5938397,0.66787964,0.29136902,1805,4835
0.59142077,0.6504753,0.28762284,1811,4772
0.56930906,0.6123047,0.27448976,1817,4708
0.5595804,0.588517,0.2675006,1823,4644
0.6056346,0.6228635,0.28713822,1828,4580
0.6424805,0.6461426,0.30216798,1834,4516
0.6630133,0.65200746,0.30933043,1839,4452
0.6735202,0.6475786,0.31181046,1845,4387
0.673645,0.633268,0.30950776,1850,4323
0.68749803,0.6318874,0.31352386,1855,4258
0.6979065,0.6270584,0.3159613,1861,4193
0.7154123,0.628309,0.32157668,1866,4129
0.7366562,0.63233566,0.3288208,1871,4064
0.761673,0.6389786,0.33767396,1875,3999
0.7869598,0.6451378,0.34656677,1880,3934
0.8014325,0.6418678,0.35061845,1885,3869
0.81191164,0.6357114,0.3531656,1890,3806
0.82640994,0.63200986,0.3572113,1894,3740
0.84093475,0.62803346,0.36127168,1899,3675
0.893389,0.6519122,0.3817639,1904,3611
0.9121115,0.6497104,0.3874539,1908,3546
0.9425446,0.6552576,0.39804155,1912,3480
0.96518296,0.6551138,0.40553588,1916,3416
0.9920654,0.6569165,0.4145526,1920,3351
1.0070316,0.6506967,0.41877288,1925,3286
1.0539294,0.66435057,0.43618652,1929,3222
1.0693414,0.6569635,0.44026214,1933,3156
1.0642639,0.63747483,0.43617967,1937,3092
1.075199,0.6276526,0.43868408,1941,3027
1.1352452,0.64562607,0.46117356,1944,2962
1.1834546,0.65540195,0.47865447,1948,2897
1.2361343,0.66642576,0.49790955,1952,2833
1.2767432,0.6697018,0.5121167,1955,2767
1.3134003,0.67002517,0.52469146,1958,2702
1.345976,0.667439,0.53562564,1962,2637
1.3871654,0.6683102,0.54985654,1965,2572
1.449887,0.6782776,0.57254636,1968,2507
1.4870975,0.67540467,0.58534014,1971,2442
1.5504456,0.68291014,0.60809326,1974,2377
1.5923681,0.6800049,0.62256104,1977,2312
1.6562942,0.68501633,0.64530945,1980,2246
1.72481,0.6905991,0.66998595,1982,2182
1.7847859,0.69127154,0.69127154,1985,2117
1.9111338,0.7153424,0.73805696,1988,2052
1.9541855,0.70627195,0.75253844,1990,1987
1.983999,0.69161683,0.76193804,1993,1921
2.0047302,0.6735306,0.76808167,1996,1857
1.9047016,0.6158331,0.7278323,1998,1791
1.9112668,0.5941873,0.7286774,2000,1726
1.9985962,0.5965979,0.7603473,2002,1662
2.1539822,0.61641127,0.8176602,2004,1596
2.2557266,0.61786467,0.85449374,2006,1531
2.4167945,0.6325293,0.91356325,2008,1466
2.5466163,0.6355452,0.960696,2010,1401
2.6263504,0.6239052,0.98915863,2012,1336
2.756656,0.621878,1.0365247,2014,1271
2.9056609,0.6206753,1.0904801,2015,1205
3.031746,0.6118797,1.1362762,2017,1141
3.0659447,0.58244324,1.147332,2018,1075
3.9636154,0.7065775,1.4813645,2020,1010
3.9665804,0.6603775,1.4802917,2020,945
3.7463207,0.5800842,1.396394,2022,880
3.724498,0.53343475,1.3870038,2023,815
3.7347784,0.49158263,1.3892233,2024,749
3.8330734,0.46025008,1.4245776,2025,684
3.7399173,0.4059195,1.388717,2026,619
3.7300727,0.36197373,1.3838881,2026,554
3.6916733,0.31594697,1.3689026,2027,489
3.6808965,0.27283692,1.3641846,2028,423
3.6930199,0.23151352,1.3678921,2028,358
3.7326539,0.19141816,1.3822483,2029,293
3.8423736,0.15314941,1.4220123,2029,228
3.8438752,0.10935669,1.4222625,2029,162
3.858817,0.06592941,1.4277171,2030,97
3.863883,0.022003174,1.4297034,2030,32
3.863883,-0.022003174,1.4297034,2030,-32
3.7228441,-0.06360626,1.3774087,2030,-97
3.721996,-0.10588928,1.3771664,2029,-162
3.7439713,-0.14922729,1.385595,2029,-228
3.7373374,-0.19165832,1.3839825,2029,-293
3.7211037,-0.23327407,1.3782943,2028,-358
3.7183137,-0.27561036,1.3780518,2028,-423
3.8084984,-0.3259453,1.4122223,2027,-489
3.7067306,-0.35970855,1.3752279,2026,-554
3.7958763,-0.41199312,1.4094958,2026,-619
3.7958138,-0.4557762,1.41073,2025,-684
3.8789604,-0.5105603,1.4428546,2024,-749
3.8591743,-0.5527235,1.4371573,2023,-815
3.8668706,-0.5987503,1.4413276,2022,-880
3.8878968,-0.64727783,1.4509277,2020,-945
3.8897018,-0.69340116,1.4537399,2020,-1010
3.8681617,-0.73484194,1.4475361,2018,-1075
3.8598404,-0.7790092,1.44664,2017,-1141
3.851263,-0.8226645,1.4453598,2015,-1205
3.8327591,-0.86463773,1.441148,2014,-1271
3.8230526,-0.90818894,1.439871,2012,-1336
3.826758,-0.95502317,1.4436219,2010,-1401
3.8250768,-1.0011084,1.4459027,2008,-1466
3.827488,-1.0483849,1.449894,2006,-1531
3.8067234,-1.089381,1.4450473,2004,-1596
3.7586212,-1.1219803,1.4299324,2002,-1662
3.7372892,-1.1618733,1.424855,2000,-1726
3.742336,-1.209982,1.4300368,1998,-1791
3.7198882,-1.2497734,1.4252182,1996,-1857
3.6928124,-1.2873046,1.4181933,1993,-1921
3.7226791,-1.3454322,1.4335687,1990,-1987
3.7165825,-1.3911268,1.4352996,1988,-2052
3.7186694,-1.4402906,1.4402906,1985,-2117
3.6897836,-1.4773575,1.4332612,1982,-2182
3.5777695,-1.4797072,1.3939362,1980,-2246
3.6390805,-1.5540329,1.422755,1977,-2312
3.6306267,-1.5991479,1.4239517,1974,-2377
3.5613198,-1.6174676,1.4017799,1971,-2442
3.547959,-1.6597852,1.4010547,1968,-2507
3.533666,-1.702454,1.400705,1965,-2572
3.523166,-1.7470582,1.4020294,1962,-2637
3.4030914,-1.7360716,1.3595041,1958,-2702
3.3837867,-1.7749287,1.3572766,1955,-2767
3.3641105,-1.813662,1.3550491,1952,-2833
3.3524342,-1.8565915,1.3559097,1948,-2897
3.3401618,-1.8995857,1.3568825,1944,-2962
3.388506,-1.9780567,1.3825195,1941,-3027
3.3182373,-1.9875641,1.3599517,1937,-3092
3.292446,-2.022756,1.355544,1933,-3156
3.353412,-2.1138427,1.3878663,1929,-3222
3.33827,-2.157034,1.3882157,1925,-3286
3.3265686,-2.2027557,1.3900673,1920,-3351
3.204251,-2.174872,1.3463135,1916,-3416
3.2116332,-2.2327294,1.3562896,1912,-3480
3.2558918,-2.3192194,1.3830633,1908,-3546
3.18413,-2.323482,1.3606458,1904,-3611
3.2235832,-2.4074616,1.3848747,1899,-3675
3.1178193,-2.3844008,1.3476608,1894,-3740
3.1061206,-2.4320333,1.3511014,1890,-3806
3.161411,-2.5319762,1.3830848,1885,-3869
3.0563323,-2.5055351,1.3459686,1880,-3934
3.093843,-2.5954702,1.3715994,1875,-3999
3.0364609,-2.6064568,1.3553833,1871,-4064
3.0894423,-2.7132947,1.3886993,1866,-4129
3.0700836,-2.7584236,1.3899106,1861,-4193
3.0361588,-2.7905686,1.3845978,1855,-4258
3.022766,-2.841587,1.3888168,1850,-4323
2.9915237,-2.8763008,1.3849449,1845,-4387
2.9531155,-2.9040945,1.3777831,1839,-4452
2.8911622,-2.9076416,1.3597559,1834,-4516
2.862699,-2.9441361,1.357238,1828,-4580
2.8240812,-2.970118,1.3500177,1823,-4644
2.7398,-2.9467163,1.3209819,1817,-4708
2.6885667,-2.9570255,1.3075179,1811,-4772
2.6185806,-2.945065,1.2848134,1805,-4835
2.5740967,-2.9606895,1.2744598,1799,-4899
2.506488,-2.9512718,1.253865,1794,-4965
2.465447,-2.968857,1.2450365,1788,-5029
2.4063916,-2.9636896,1.227059,1781,-5092
2.3743293,-2.991224,1.2227759,1775,-5155
2.290821,-2.9553688,1.1931435,1769,-5221
2.2474487,-2.9662888,1.1828928,1763,-5285
2.1957715,-2.9649765,1.168039,1756,-5347
2.142441,-2.9641433,1.1537302,1750,-5414
2.0887094,-2.957316,1.1374114,1744,-5476
2.0515559,-2.9732025,1.1301404,1737,-5539
1.9858406,-2.950171,1.108474,1731,-5605
1.9569751,-2.976783,1.1056362,1724,-5667
1.904458,-2.9668195,1.0895004,1717,-5730
1.8606479,-2.973363,1.0796753,1710,-5796
1.8141125,-2.9700525,1.0666285,1703,-5858
1.7706714,-2.975276,1.0567908,1697,-5924
1.7221522,-2.9664211,1.0423064,1690,-5986
1.6788538,-2.9652905,1.0306921,1682,-6048
1.6405532,-2.9770036,1.0238968,1676,-6114
1.6042786,-2.987307,1.0165832,1668,-6176
0.39558107,0.74174803,0.26020265,1719,6192
0.35351196,0.6447528,0.22857025,1726,6126
0.3509903,0.6239548,0.22354889,1734,6064
0.36042678,0.62375975,0.22591476,1741,5997
0.3767624,0.6359787,0.2328453,1748,5935
0.3834793,0.63160324,0.23379135,1755,5873
0.3956383,0.6349857,0.23767044,1762,5807
0.39980713,0.62637085,0.23710877,1769,5745
0.40426865,0.6174835,0.23641662,1776,5678
0.39494002,0.58907926,0.22812897,1783,5616
0.43081054,0.62763673,0.24592285,1790,5553
0.46252197,0.65739703,0.26063278,1796,5487
0.46953613,0.65200746,0.2615869,1803,5424
0.46804017,0.6350888,0.25788057,1810,5361
0.47196808,0.6258499,0.2572586,1816,5297
0.48772705,0.6314099,0.26275635,1822,5231
0.49743804,0.6294693,0.26524872,1829,5168
0.49223557,0.60893095,0.25985184,1835,5104
0.5380795,0.6507419,0.28127563,1842,5041
0.5695569,0.6734326,0.29491058,1848,4977
0.5833978,0.6737317,0.29894227,1854,4911
0.59062684,0.666933,0.2998889,1860,4847
0.5946472,0.65656585,0.29926392,1866,4783
0.5695459,0.6148924,0.28412476,1872,4719
0.56316864,0.5945291,0.2785486,1878,4655
0.6091202,0.6287674,0.2987732,1884,4590
0.6492165,0.6552566,0.3158455,1890,4526
0.6664554,0.6576636,0.32164124,1895,4461
0.67358553,0.649899,0.3225476,1901,4397
0.67721754,0.6388011,0.3217903,1906,4332
0.68416137,0.6308954,0.32266206,1912,4268
0.69806075,0.62922335,0.32681838,1917,4203
0.71555024,0.6304486,0.33257753,1922,4138
0.7364777,0.6346344,0.34016907,1928,4075
0.73981553,0.6229828,0.33936232,1933,4010
0.7830887,0.6443176,0.35676956,1938,3944
0.8158676,0.65584445,0.36926606,1943,3879
0.8191055,0.6436166,0.36858064,1948,3815
0.82618713,0.63403964,0.36938995,1952,3750
0.82939756,0.62153625,0.36852416,1957,3684
0.8929756,0.65380174,0.394619,1962,3621
0.9040497,0.64606875,0.39712647,1966,3555
0.9147876,0.63842744,0.39974946,1971,3491
0.956846,0.6515231,0.41575563,1975,3425
0.9912538,0.6587898,0.42851257,1980,3360
1.0062103,0.6525192,0.43287277,1984,3296
1.0492163,0.6633435,0.44891602,1988,3230
1.0563464,0.6512585,0.44984254,1992,3165
1.0593278,0.6367123,0.44902146,1996,3100
1.0662303,0.6245126,0.44990432,2000,3035
1.1300887,0.64478076,0.47474122,2004,2970
1.1863217,0.6591313,0.49618956,2008,2905
1.2306323,0.6655164,0.51255125,2012,2840
1.2669395,0.666629,0.5254288,2015,2775
1.3076214,0.66907,0.540118,2018,2709
1.3442872,0.66860354,0.55302733,2022,2644
1.3854016,0.669353,0.56770384,2025,2578
1.4476994,0.67949206,0.59124494,2028,2514
1.4849579,0.6762891,0.6041785,2031,2448
1.5307704,0.67640215,0.6207843,2035,2383
1.5897135,0.68100816,0.6426645,2038,2318
1.6404866,0.68055296,0.66083264,2040,2253
1.7086409,0.6862028,0.6862028,2043,2188
1.7772093,0.69034,0.71157926,2046,2122
1.9073731,0.715995,0.7614624,2049,2057
1.9501572,0.7070587,0.77661544,2052,1992
1.9887314,0.6954346,0.789711,2054,1927
2.0051568,0.67555845,0.7940485,2056,1861
1.8698639,0.6064545,0.73872983,2059,1796
1.8808042,0.5864424,0.7413881,2062,1731
1.9901953,0.5957849,0.7827045,2064,1666
2.144957,0.61561066,0.8417519,2066,1601
2.2553253,0.61950684,0.8831024,2068,1535
2.4022045,0.63044906,0.93866503,2070,1470
2.5449417,0.63713425,0.9926385,2072,1405
2.6246562,0.62519485,1.0216534,2073,1339
2.7498257,0.621991,1.06861,2075,1274
2.8524463,0.6110889,1.1065869,2077,1209
3.0146954,0.6099472,1.1676849,2078,1143
3.1726365,0.6044774,1.227301,2080,1078
3.8966446,0.6964848,1.5054102,2082,1013
3.7334702,0.6235428,1.4405136,2083,948
3.6892304,0.5728914,1.4216826,2084,882
3.6999512,0.5313721,1.4240723,2085,817
3.7054443,0.48913574,1.4249268,2086,751
3.7152095,0.4473358,1.4274412,2087,686
3.71521,0.40441895,1.4261475,2088,621
3.6822877,0.3583191,1.4122485,2089,555
3.6579895,0.31386748,1.4021493,2090,490
3.6564498,0.27178422,1.4007248,2090,425
3.649882,0.22939453,1.397395,2091,359
3.694131,0.18997559,1.4139404,2091,294
3.6960645,0.14767823,1.4139404,2091,228
3.7020621,0.10563492,1.4158467,2092,163
3.7309263,0.063884884,1.4268031,2092,98
3.7314138,0.021335602,1.427047,2092,32
3.7033932,-0.021175385,1.4163307,2092,-32
3.7029092,-0.06340515,1.4160887,2092,-98
3.7020621,-0.10563492,1.4158467,2092,-163
3.7053978,-0.14805114,1.417511,2091,-228
3.7174523,-0.19117492,1.4228668,2091,-294
3.7011576,-0.23261718,1.4170264,2091,-359
3.6937132,-0.27455398,1.4149997,2090,-425
3.685913,-0.31626344,1.4128528,2090,-490
3.6776383,-0.35786667,1.4104654,2089,-555
3.6734138,-0.39986923,1.4101033,2088,-621
3.6688273,-0.4417511,1.4096205,2087,-686
3.6591263,-0.48302156,1.4071152,2086,-751
3.7230759,-0.5346931,1.4329727,2085,-817
3.7354035,-0.5800615,1.4394759,2084,-882
3.7334702,-0.6235428,1.4405136,2083,-948
3.777031,-0.67510515,1.4591992,2082,-1013
3.7419662,-0.7129509,1.4475403,2080,-1078
3.7614968,-0.76104355,1.4569442,2078,-1143
3.7164085,-0.7961783,1.441755,2077,-1209
3.7485187,-0.8478882,1.456712,2075,-1274
3.730014,-0.8884918,1.4519165,2073,-1339
3.728952,-0.933555,1.4544543,2072,-1405
3.7639062,-0.9878223,1.470752,2070,-1470
3.7709038,-1.0358155,1.4765472,2068,-1535
3.7098312,-1.0647354,1.4558601,2066,-1601
3.675586,-1.1003234,1.4455353,2064,-1666
3.6543891,-1.1394534,1.4405118,2062,-1731
3.6462345,-1.1825862,1.4405233,2059,-1796
3.6066206,-1.2151085,1.4282331,2056,-1861
3.597394,-1.2579639,1.4284995,2054,-1927
3.5569458,-1.289624,1.4164904,2052,-1992
3.55166,-1.3332322,1.4178956,2049,-2057
3.5544186,-1.38068,1.4231585,2046,-2122
3.5781462,-1.43701,1.43701,2043,-2188
3.553666,-1.4742322,1.4315135,2040,-2253
3.5499291,-1.5207336,1.4351099,2038,-2318
3.558934,-1.5725876,1.44328,2035,-2383
3.5246415,-1.6052148,1.4340558,2031,-2448
3.515235,-1.6499103,1.435633,2028,-2514
3.5226371,-1.7019525,1.4434909,2025,-2578
3.4069276,-1.694492,1.4015787,2022,-2644
3.3881178,-1.7335967,1.399475,2018,-2709
3.372967,-1.7747632,1.3988464,2015,-2775
3.349137,-1.8111871,1.3948963,2012,-2840
3.3331945,-1.8519537,1.3941382,2008,-2905
3.2964318,-1.8808044,1.3848047,2004,-2970
3.3000436,-1.9329022,1.3924795,2000,-3035
3.2988195,-1.9827658,1.3982835,1996,-3100
3.2770748,-2.0203817,1.3955342,1992,-3165
3.254955,-2.0578725,1.3926599,1988,-3230
3.2356567,-2.098297,1.391983,1984,-3296
3.2049234,-2.1300004,1.3854675,1980,-3360
3.1855972,-2.1690953,1.384162,1975,-3425
3.1419287,-2.1927423,1.3729792,1971,-3491
3.1450202,-2.2475526,1.381529,1966,-3555
3.1311145,-2.2924793,1.3836854,1962,-3621
3.117781,-2.3364112,1.3853159,1957,-3684
3.1028748,-2.3812346,1.3873017,1952,-3750
3.0836914,-2.4230273,1.3875977,1948,-3815
3.0650163,-2.4638479,1.3872428,1943,-3879
3.0449402,-2.5053468,1.3872528,1938,-3944
2.991742,-2.5192816,1.3723482,1933,-4010
2.9959626,-2.5816681,1.3837945,1928,-4075
2.98264,-2.6279097,1.3862884,1922,-4138
2.9571116,-2.6655037,1.3844619,1917,-4203
2.927655,-2.69972,1.3807315,1912,-4268
2.9082541,-2.7432778,1.3819015,1906,-4332
2.888253,-2.786688,1.3830451,1901,-4397
2.8711436,-2.833268,1.3856565,1895,-4461
2.8665404,-2.8932102,1.3945793,1890,-4526
2.828293,-2.91952,1.3872766,1884,-4590
2.7539923,-2.9073505,1.3621509,1878,-4655
2.7222364,-2.9389772,1.3580201,1872,-4719
2.658423,-2.9352355,1.3378857,1866,-4783
2.6106963,-2.9479856,1.3255728,1860,-4847
2.5601234,-2.9565353,1.3118477,1854,-4911
2.4925768,-2.9471729,1.2906302,1848,-4977
2.457633,-2.9722087,1.2847028,1842,-5041
2.3836133,-2.948702,1.2583128,1835,-5104
2.3635666,-2.9909103,1.2603238,1829,-5168
2.2702532,-2.9390628,1.2230682,1822,-5231
2.2397032,-2.9699423,1.220809,1816,-5297
2.1879468,-2.968849,1.205514,1810,-5361
2.1365283,-2.9668267,1.1902978,1803,-5424
2.085454,-2.9641213,1.1751609,1796,-5487
2.0436575,-2.9773517,1.1665965,1790,-5553
1.9853026,-2.9612107,1.146769,1783,-5616
1.961355,-2.995791,1.147002,1776,-5678
1.8939581,-2.967231,1.1232268,1769,-5745
1.8547119,-2.976748,1.1141748,1762,-5807
1.8035898,-2.9705727,1.0995735,1755,-5873
1.7647064,-2.9788423,1.0906174,1748,-5935
1.7209783,-2.9783497,1.0787055,1741,-5997
1.6730537,-2.9741845,1.065583,1734,-6064
1.634419,-2.980935,1.0567664,1726,-6126
1.5890671,-2.9796357,1.0452458,1719,-6192
0.39286864,0.74059325,0.26753417,1769,6205
0.3370062,0.6188422,0.22592041,1777,6142
0.3463768,0.6187947,0.22833359,1784,6076
0.35531616,0.6188507,0.23080444,1792,6013
0.37439728,0.63493806,0.23939666,1799,5947
0.3761966,0.62240297,0.23726486,1806,5885
0.38780746,0.62609255,0.24133606,1814,5822
0.39745057,0.6252997,0.2437738,1821,5755
0.41445312,0.63657224,0.25100097,1828,5693
0.40807647,0.6119728,0.24407959,1835,5630
0.43642592,0.63831055,0.25754777,1842,5563
0.4513986,0.6448407,0.26327574,1849,5500
0.46930543,0.6549835,0.2706314,1856,5437
0.47070557,0.6418689,0.26842162,1863,5374
0.46622986,0.62120605,0.26295653,1870,5311
0.48769042,0.6342657,0.27182448,1876,5244
0.50032425,0.6360054,0.2760068,1883,5180
0.5012288,0.6227904,0.27370697,1889,5117
0.5349832,0.64979124,0.28926086,1896,5053
0.5510977,0.6543906,0.2951027,1903,4989
0.5828384,0.6765655,0.3091553,1909,4925
0.59013474,0.6697595,0.31016463,1916,4861
0.59142286,0.65556717,0.30770996,1921,4794
0.57289505,0.6209117,0.29547456,1927,4730
0.56342375,0.5970364,0.28809723,1933,4665
0.59610444,0.6175992,0.30223176,1939,4601
0.6392595,0.64750534,0.32144088,1945,4536
0.65296555,0.6466576,0.32569426,1951,4472
0.6732222,0.6523918,0.33343795,1957,4409
0.6735202,0.6379895,0.33098862,1963,4344
0.6770398,0.62688535,0.33020568,1969,4279
0.7013347,0.63474977,0.33951873,1974,4214
0.71178985,0.6296164,0.34207094,1979,4149
0.72936785,0.6304901,0.34802705,1984,4084
0.7431798,0.62823945,0.35243317,1990,4020
0.7790863,0.64343184,0.36690673,1995,3955
0.8154254,0.65787995,0.3814438,2000,3889
0.81502515,0.6427399,0.37903443,2006,3825
0.8295467,0.6388588,0.38331527,2010,3760
0.82885116,0.6237207,0.3808554,2016,3696
0.88489103,0.6500555,0.40407988,2020,3630
0.90325147,0.64808303,0.410273,2025,3565
0.91428953,0.6401407,0.41280305,2029,3499
0.9559868,0.6534178,0.42939317,2034,3435
0.9788219,0.6525479,0.4371512,2038,3369
0.99761355,0.64895266,0.44334504,2043,3304
1.0441809,0.6624976,0.46176636,2047,3239
1.051311,0.65045285,0.46269286,2051,3174
1.0583203,0.63828737,0.46361938,2056,3109
1.0773541,0.63315535,0.46974334,2060,3044
1.1369873,0.6509094,0.49355468,2064,2979
1.1767236,0.6559277,0.50853515,2068,2913
1.2167724,0.6601465,0.52356446,2071,2848
1.2570337,0.66346925,0.5385962,2075,2782
1.301699,0.6681148,0.55540115,2078,2716
1.3422185,0.66990924,0.5706743,2082,2652
1.3747911,0.66656387,0.5821893,2085,2586
1.4412475,0.6783993,0.6079474,2088,2520
1.4909574,0.6813158,0.6267934,2092,2455
1.5323892,0.67931503,0.6420653,2095,2390
1.5782739,0.67826414,0.65917236,2099,2325
1.6375091,0.6814209,0.6814209,2101,2259
1.7054135,0.686987,0.7074878,2104,2194
1.764975,0.6876526,0.7299649,2107,2128
1.9119058,0.7201309,0.7887021,2110,2063
1.9723206,0.71720123,0.811203,2113,1998
1.988949,0.6974909,0.81570494,2115,1932
1.9963287,0.67473084,0.8167395,2118,1867
1.8838234,0.61289597,0.76885986,2121,1802
1.903717,0.5954096,0.77520144,2123,1736
1.9770606,0.5936319,0.8031809,2126,1671
2.1356406,0.6147373,0.86562514,2128,1605
2.2410686,0.61735415,0.90638673,2130,1540
2.3918335,0.6294768,0.96524096,2131,1474
2.5476215,0.63950866,1.0262604,2134,1409
2.6267974,0.62764895,1.0563476,2136,1343
2.742497,0.6222851,1.100888,2137,1278
2.7809935,0.597612,1.1144857,2139,1212
3.0520267,0.61932725,1.2209945,2140,1147
3.346474,0.6394501,1.3369812,2142,1081
3.7333856,0.66930085,1.489698,2144,1016
3.589019,0.60115296,1.4302143,2145,950
3.5678759,0.5556897,1.4199512,2146,885
3.5784018,0.5153838,1.4223738,2147,819
3.5883493,0.47497222,1.4250354,2148,754
3.588598,0.4333397,1.4237965,2149,688
3.5978463,0.39270386,1.4261038,2150,622
3.601764,0.35151032,1.4268161,2151,557
3.586789,0.3087213,1.4200708,2152,491
3.5899777,0.26762146,1.420425,2153,426
3.5694854,0.22505829,1.4114839,2153,360
3.5763595,0.184346,1.4134369,2153,295
3.578122,0.14345856,1.4136719,2154,229
3.5888293,0.102719724,1.4174615,2154,163
3.589654,0.061608277,1.417815,2154,98
3.5946577,0.020523377,1.4197694,2155,32
3.5807068,-0.020443726,1.4142593,2155,-32
3.5617552,-0.061129455,1.4067956,2154,-98
3.560937,-0.10192139,1.406445,2154,-163
3.582769,-0.14364487,1.4155078,2154,-229
3.5670702,-0.18386719,1.4097656,2153,-295
3.578769,-0.22564362,1.4151549,2153,-360
3.594616,-0.26796722,1.4222603,2153,-426
3.6006913,-0.3099179,1.4255749,2152,-491
3.5832458,-0.34970307,1.4194803,2151,-557
3.574724,-0.39018005,1.4169387,2150,-622
3.5655053,-0.43055114,1.4146343,2149,-688
3.5606756,-0.4713092,1.4140455,2148,-754
3.6290612,-0.52268004,1.4425104,2147,-819
3.6184516,-0.56356674,1.4400793,2146,-885
3.6532726,-0.6119153,1.4558191,2145,-950
3.660092,-0.6561612,1.4604524,2144,-1016
3.6573486,-0.69885254,1.4611816,2142,-1081
3.6268477,-0.7359718,1.4509575,2140,-1147
3.6412354,-0.7824707,1.4592285,2139,-1212
3.6279058,-0.8231885,1.4563072,2137,-1278
3.61864,-0.8646405,1.45521,2136,-1343
3.6091304,-0.90597063,1.4538689,2134,-1409
3.60802,-0.94954973,1.4560415,2131,-1474
3.5973866,-0.99098325,1.4549414,2130,-1540
3.581787,-1.0310059,1.4517822,2128,-1605
3.5747755,-1.0733615,1.4522525,2126,-1671
3.5583496,-1.112915,1.4489746,2123,-1736
3.5460205,-1.1536865,1.4472656,2121,-1802
3.5333252,-1.1942139,1.4455566,2118,-1867
3.498262,-1.2267815,1.4347023,2115,-1932
3.5063477,-1.2750244,1.4421387,2113,-1998
3.4789703,-1.3103752,1.4351497,2110,-2063
3.4734359,-1.3532867,1.4365566,2107,-2128
3.4324694,-1.3826921,1.4239539,2104,-2194
3.4129138,-1.4202247,1.4202247,2101,-2259
3.375276,-1.4505268,1.4096974,2099,-2325
3.3422306,-1.4816258,1.4003819,2095,-2390
3.2962475,-1.5062708,1.3857312,2092,-2455
3.3009214,-1.5537534,1.3923956,2088,-2520
3.3213608,-1.6103531,1.4065125,2085,-2586
3.2865536,-1.6403384,1.397352,2082,-2652
3.2688034,-1.6777579,1.3947134,2078,-2716
3.2500937,-1.7154171,1.3925546,2075,-2782
3.2269135,-1.7507263,1.3885071,2071,-2848
3.211475,-1.7901361,1.3878772,2068,-2913
3.1957464,-1.8295205,1.3872412,2064,-2979
3.187677,-1.873381,1.3898773,2060,-3044
3.1869874,-1.9221153,1.3961265,2056,-3109
3.1738443,-1.9636779,1.3968418,2051,-3174
3.152319,-2.00004,1.3940446,2047,-3239
3.1263795,-2.0337255,1.3893805,2043,-3304
3.1119516,-2.0746343,1.3898273,2038,-3369
3.0963135,-2.116333,1.3907471,2034,-3435
3.0578759,-2.1409748,1.3806354,2029,-3499
3.083251,-2.2122328,1.4004676,2025,-3565
3.0706475,-2.2557483,1.4021918,2020,-3630
3.0191185,-2.2719238,1.3872788,2016,-3696
2.9982717,-2.3090591,1.3854355,2010,-3760
2.9835083,-2.3528352,1.3875061,2006,-3825
2.9618592,-2.3896089,1.3855133,2000,-3889
2.9424098,-2.4300776,1.3857129,1995,-3955
2.9045045,-2.4552932,1.3773837,1990,-4020
2.924587,-2.5281115,1.3955035,1984,-4084
2.9105864,-2.57457,1.3987652,1979,-4149
2.8576772,-2.5863683,1.3834121,1974,-4214
2.8325133,-2.6226838,1.3814728,1969,-4279
2.806904,-2.6588295,1.3793993,1963,-4344
2.7740815,-2.6882477,1.3739655,1957,-4409
2.7424552,-2.7159617,1.367916,1951,-4472
2.7127125,-2.747704,1.3640419,1945,-4536
2.7217736,-2.8199172,1.3799702,1939,-4601
2.719977,-2.8822448,1.3908142,1933,-4665
2.6660423,-2.8894942,1.3750296,1927,-4730
2.6218693,-2.906231,1.364126,1921,-4794
2.5791073,-2.927097,1.3555343,1916,-4861
2.528717,-2.9353638,1.3413086,1909,-4925
2.4905963,-2.9574115,1.3336685,1903,-4989
2.4134355,-2.9313617,1.304924,1896,-5053
2.366749,-2.94075,1.2924151,1889,-5117
2.3406982,-2.9754639,1.2912598,1883,-5180
2.2624218,-2.9423926,1.2610083,1876,-5244
2.2259634,-2.9658802,1.2554572,1870,-5311
2.182617,-2.976285,1.2446456,1863,-5374
2.1256776,-2.96669,1.2258011,1856,-5437
2.08296,-2.9755902,1.2148749,1849,-5500
2.0295146,-2.96834,1.1976761,1842,-5563
1.9771963,-2.965107,1.182605,1835,-5630
1.9531103,-2.9998467,1.1828421,1828,-5693
1.8700558,-2.942115,1.146987,1821,-5755
1.84146,-2.9729297,1.145957,1814,-5822
1.7973838,-2.973703,1.1335988,1806,-5885
1.7487977,-2.9657753,1.1182141,1799,-5947
1.7055175,-2.9704833,1.1078613,1792,-6013
1.6667931,-2.97769,1.0987597,1784,-6076
1.6189961,-2.9729512,1.0853338,1777,-6142
1.5737069,-2.9665809,1.0716568,1769,-6205
0.0,0.0,0.0,0,0
0.33924866,0.62615204,0.23522186,1827,6155
0.32746065,0.5889438,0.2236084,1835,6092
0.343591,0.60132325,0.23077606,1842,6025
0.35477906,0.60542786,0.23488587,1850,5962
0.3734418,0.6215625,0.24382508,1858,5900
0.38790527,0.62901306,0.2495105,1865,5833
0.3794403,0.6004257,0.24085236,1873,5770
0.4141446,0.63966644,0.25952208,1880,5707
0.41051513,0.6190068,0.25403258,1888,5644
0.43349105,0.6373903,0.26463622,1894,5578
0.44840974,0.6439288,0.27052003,1902,5514
0.45529938,0.63866025,0.2715332,1909,5451
0.4482431,0.6142154,0.26428804,1916,5387
0.46367738,0.62005496,0.2700885,1923,5321
0.47033387,0.6145996,0.27103943,1930,5257
0.50602204,0.6462076,0.2885486,1936,5193
0.50413376,0.6291953,0.28453904,1943,5129
0.5318326,0.6487863,0.29719177,1950,5065
0.547894,0.6533687,0.30319488,1957,5001
0.5733609,0.6683789,0.31427276,1964,4937
0.5868182,0.66869247,0.31864333,1970,4873
0.57834107,0.644292,0.3111963,1977,4808
0.563037,0.61321795,0.30027556,1983,4744
0.5536145,0.5894653,0.2926593,1989,4679
0.6056012,0.6303781,0.317417,1995,4614
0.6355194,0.6467102,0.33033463,2001,4550
0.64588714,0.6425125,0.33299348,2007,4484
0.6629993,0.6447229,0.3390747,2013,4419
0.6700633,0.63690734,0.34000656,2019,4354
0.6732715,0.62604797,0.3393274,2025,4291
0.6836203,0.62127626,0.3419304,2031,4226
0.69745344,0.61941546,0.34628236,2036,4160
0.72195005,0.626543,0.35588562,2042,4095
0.7464058,0.6334164,0.3656288,2048,4031
0.77862304,0.64550173,0.37876466,2053,3965
0.79301757,0.64219785,0.38316986,2058,3900
0.81084365,0.64179564,0.38945448,2063,3836
0.8253273,0.637906,0.39382964,2068,3770
0.8395958,0.6340141,0.3983574,2073,3705
0.8579224,0.6324133,0.4045038,2078,3639
0.895011,0.6443402,0.4197052,2083,3575
0.9133902,0.6420645,0.4260251,2088,3510
0.95905423,0.6576448,0.4446863,2092,3443
0.97388124,0.65174365,0.44925386,2097,3379
0.98479795,0.64299685,0.452005,2102,3314
1.0389844,0.6616516,0.47449586,2106,3249
1.0461144,0.64956665,0.47546265,2111,3183
1.0571533,0.6398155,0.47819367,2115,3118
1.0560772,0.622787,0.47546753,2119,3052
1.1153541,0.6406842,0.49985412,2123,2987
1.175209,0.6572792,0.52432406,2127,2921
1.2150824,0.6613797,0.53974456,2131,2855
1.2634894,0.6689861,0.55880785,2134,2790
1.2953948,0.66730285,0.57082766,2139,2725
1.3484839,0.6750824,0.5917786,2142,2659
1.3849918,0.67385894,0.60562456,2146,2594
1.4386898,0.67950165,0.626586,2149,2528
1.475539,0.67652833,0.64042264,2153,2463
1.5422626,0.6859424,0.6671654,2156,2397
1.5880499,0.68467164,0.68467164,2159,2332
1.638317,0.6842496,0.7040677,2163,2266
1.6974176,0.68620545,0.7271469,2166,2201
1.7481433,0.68346375,0.7465271,2168,2135
1.9119751,0.7222778,0.8139893,2171,2069
1.9632568,0.7162399,0.833725,2174,2004
1.9886054,0.6996765,0.84196717,2177,1938
2.013604,0.68277895,0.85043365,2180,1873
1.866503,0.60917264,0.78641236,2182,1807
1.8818779,0.5904579,0.79097366,2185,1741
1.9592524,0.59014434,0.821559,2187,1676
2.1617637,0.6241592,0.90434265,2189,1610
2.2266228,0.61520505,0.9294186,2191,1544
2.4573705,0.64887697,1.0237372,2193,1479
2.5406723,0.63986665,1.05653,2196,1413
2.637838,0.6320778,1.0945542,2197,1347
2.7392797,0.62351346,1.1350479,2199,1282
2.7776563,0.59872633,1.1490009,2201,1216
3.0293663,0.61666155,1.2509303,2203,1150
3.377246,0.64728,1.3926086,2204,1084
3.7124093,0.66748595,1.5287341,2206,1019
3.5138662,0.59022063,1.4450432,2207,953
3.5339355,0.55200076,1.4513873,2208,887
3.525835,0.5093733,1.4466859,2210,822
3.5311153,0.468891,1.4475074,2211,756
3.54524,0.4294052,1.4518602,2212,690
3.5266905,0.3861792,1.4429123,2213,624
3.5306644,0.34562102,1.4436135,2214,559
3.5527434,0.30665588,1.4512695,2214,493
3.5374436,0.26438782,1.444198,2215,427
3.5215292,0.22266082,1.4372379,2216,361
3.528479,0.18243729,1.439124,2216,295
3.5302255,0.14192154,1.4394733,2216,230
3.5268776,0.10127289,1.4377029,2216,164
3.5323212,0.060890045,1.439939,2217,98
3.5326705,0.020257873,1.4400554,2217,32
3.5373003,-0.020284424,1.4419427,2217,-32
3.4906554,-0.060171813,1.4229541,2217,-98
3.4944787,-0.10034256,1.4244957,2216,-164
3.4932113,-0.1404335,1.4243805,2216,-230
3.5192301,-0.18195908,1.4353517,2216,-295
3.5030434,-0.221492,1.4296933,2216,-361
3.509735,-0.26231688,1.4328858,2215,-427
3.5204458,-0.30386811,1.4380761,2214,-493
3.5122275,-0.34381622,1.4360751,2214,-559
3.499066,-0.3831543,1.4316101,2213,-624
3.4992576,-0.42383575,1.4330293,2212,-690
3.5035644,-0.46523255,1.4362134,2211,-756
3.5625145,-0.5146724,1.461736,2210,-822
3.5888672,-0.560581,1.4739478,2208,-887
3.5869765,-0.6025009,1.4751091,2207,-953
3.5983918,-0.64698577,1.4817828,2206,-1019
3.6230292,-0.6943866,1.4939575,2204,-1084
3.5652962,-0.72575605,1.4722344,2203,-1150
3.606875,-0.7774652,1.4920142,2201,-1216
3.5755286,-0.81386,1.4815559,2199,-1282
3.5982816,-0.8622189,1.4930841,2197,-1347
3.5749283,-0.9003433,1.4866219,2196,-1413
3.5829182,-0.9460815,1.4926387,2193,-1479
3.5724332,-0.9870459,1.4911757,2191,-1544
3.5613387,-1.028254,1.4898345,2189,-1610
3.5275428,-1.0625274,1.4791788,2187,-1676
3.502507,-1.0989463,1.4721416,2185,-1741
3.4726663,-1.133378,1.463136,2182,-1807
3.389713,-1.1493943,1.4316252,2180,-1873
3.381505,-1.1897583,1.4317151,2177,-1938
3.3593507,-1.2255661,1.426596,2174,-2004
3.3589926,-1.2689109,1.4300312,2171,-2069
3.3448386,-1.3077165,1.4283798,2168,-2135
3.3302126,-1.3462863,1.4266106,2166,-2201
