1.695816,-2.7676773,0.16275787,287,-5850
1.721836,-2.8804247,0.16765137,286,-5913
1.645079,-2.8214328,0.16246216,284,-5975
0.35662505,0.612518,0.041688234,336,5979
0.3658571,0.61286026,0.042156372,338,5916
0.3308325,0.5407034,0.037594605,339,5853
0.3473091,0.5539755,0.03891861,340,5791
0.36950865,0.5753348,0.04086838,342,5728
0.37301636,0.5670886,0.040736083,343,5666
0.3791797,0.56297976,0.040881347,344,5603
0.3796353,0.5505908,0.040443726,346,5541
0.39423874,0.5586321,0.041495513,347,5478
0.3827696,0.5300287,0.039838105,348,5416
0.4211508,0.5699631,0.04333496,349,5353
0.44841415,0.5931944,0.04563034,351,5291
0.47621703,0.61589724,0.047940675,352,5228
0.0,0.0,0.0,0,0
0.5114891,0.6324905,0.05044006,354,5103
0.4929367,0.5961029,0.048130035,356,5041
0.49619508,0.58685243,0.047984008,357,4978
0.45034882,0.5209744,0.04314606,358,4915
0.50888425,0.5758551,0.04828949,359,4853
0.52851504,0.58505034,0.049712524,360,4790
0.5416504,0.5865723,0.050488282,361,4728
0.55487275,0.5878482,0.05129242,363,4665
0.55781037,0.5781515,0.051123198,364,4602
0.5605957,0.5684326,0.050952148,365,4539
0.5880264,0.58334047,0.05304016,366,4477
0.5872229,0.569906,0.05255127,367,4414
0.6076721,0.5774231,0.05401245,368,4353
0.61032367,0.56730974,0.05384384,369,4290
0.6312566,0.57398343,0.055263977,370,4227
0.641247,0.5703589,0.05574463,371,4165
0.6512314,0.5665476,0.05622711,372,4102
0.6459824,0.54966736,0.055381775,373,4039
0.6788205,0.5648735,0.05782425,374,3976
0.6694986,0.54476947,0.056649476,375,3913
0.6715338,0.5342981,0.05647949,376,3850
0.677334,0.5268707,0.05661072,377,3787
0.6830817,0.5194171,0.05674194,378,3724
0.6326654,0.47021973,0.05224396,379,3662
0.6337639,0.46029633,0.05203308,380,3599
0.62654144,0.44466278,0.051156312,380,3536
0.8527759,0.59125245,0.06925293,381,3473
0.8633177,0.5846553,0.06974533,382,3410
0.9029857,0.5971672,0.07254746,383,3347
0.93445224,0.60367477,0.07472351,384,3286
0.9325798,0.5880429,0.074221954,385,3223
0.96869385,0.5960925,0.076712035,385,3160
0.9537796,0.57260805,0.07519989,386,3097
0.8739073,0.5116817,0.068579406,387,3034
0.8751196,0.499606,0.068364866,388,2972
0.89359057,0.49726638,0.06950531,388,2909
0.9472082,0.5135999,0.0733667,389,2846
0.96601135,0.5101735,0.07451935,390,2783
0.97152513,0.49958038,0.074653015,390,2721
0.98586047,0.49338546,0.075469665,391,2658
1.022514,0.49798462,0.077999264,392,2596
1.0278717,0.48678222,0.078138426,393,2534
1.2551563,0.57770324,0.095058136,393,2471
1.2568579,0.56188846,0.09488342,394,2408
1.272074,0.5520889,0.095698245,394,2346
1.3009986,0.54781157,0.097548984,395,2283
1.3115326,0.53544676,0.09802368,395,2220
1.3218911,0.52302474,0.09854279,396,2158
1.3461325,0.51568085,0.10005814,397,2096
1.3516889,0.5009521,0.10019043,397,2033
1.605943,0.57528806,0.11872101,398,1970
1.6215283,0.56096315,0.11957275,398,1908
1.6275122,0.54332644,0.11973023,399,1846
1.6333386,0.52553225,0.119835205,399,1783
1.6533012,0.5120601,0.12103912,400,1720
1.7400751,0.5181512,0.12708008,400,1658
1.8366889,0.52526915,0.1338887,400,1595
1.8711603,0.5130792,0.13610488,401,1533
1.9200997,0.5039981,0.1393753,401,1470
1.9447953,0.487901,0.14096008,402,1408
1.5522461,0.37143555,0.11230469,402,1345
1.0650252,0.2426056,0.07692535,402,1283
1.0529736,0.22777954,0.0759375,403,1220
1.0504936,0.21527557,0.07565155,403,1158
1.0478934,0.20284545,0.075332336,403,1095
1.0549552,0.1922783,0.07574997,404,1032
1.0274919,0.1757187,0.0736998,404,970
1.0391917,0.166035,0.07443725,404,907
1.0458636,0.15543517,0.07482239,404,845
1.0277491,0.14126709,0.073474124,405,782
1.0341572,0.1306569,0.07385925,405,720
1.025619,0.11822525,0.07318405,405,657
1.0318115,0.1075293,0.073569335,405,594
1.0229905,0.095305175,0.07289337,405,532
1.0289356,0.0845549,0.07327881,405,469
1.039738,0.07398681,0.07398681,406,407
1.0604173,0.063832395,0.07543533,406,344
1.0660162,0.05247467,0.075822145,406,281
1.0466034,0.04005432,0.07440491,406,219
1.0270139,0.028069763,0.07298767,406,156
1.0272653,0.016848145,0.07298767,406,93
1.042353,0.0057084654,0.0740506,406,31
1.0373657,-0.0056811525,0.073696285,406,-31
1.0372387,-0.017011719,0.073696285,406,-93
1.0569268,-0.02888733,0.07511353,406,-156
1.0715225,-0.041007996,0.07617645,406,-219
1.075979,-0.05296509,0.07653076,406,-281
1.0554389,-0.06353272,0.07508118,406,-344
1.0248135,-0.07292481,0.07292481,406,-407
1.038877,-0.08537186,0.07398681,405,-469
1.0279564,-0.095767826,0.073247224,405,-532
1.0268509,-0.10701233,0.07321563,405,-594
1.0157096,-0.117082976,0.07247696,405,-657
1.0242609,-0.12940659,0.07315247,405,-720
1.0376313,-0.14262542,0.0741806,405,-782
1.0606636,-0.15763474,0.0758812,404,-845
1.0293416,-0.16446121,0.07373169,404,-907
1.0422406,-0.17824097,0.07475769,404,-970
1.0451417,-0.19048965,0.07504532,404,-1032
1.0576868,-0.20474121,0.07603638,403,-1095
1.0651517,-0.21827942,0.076707155,403,-1158
1.0627234,-0.22988862,0.07664063,403,-1220
1.0601621,-0.2414978,0.076574095,402,-1283
1.3000062,-0.31107727,0.094055176,402,-1345
2.2495766,-0.5643631,0.16305085,402,-1408
2.2626302,-0.5939073,0.16423874,401,-1470
2.2704053,-0.6225537,0.16514526,401,-1533
2.2730823,-0.65007204,0.16570038,400,-1595
2.2611415,-0.67331195,0.16513428,400,-1658
2.2774582,-0.7053738,0.16673401,400,-1720
2.279077,-0.7333008,0.16721192,399,-1783
2.2709472,-0.7581299,0.16706543,399,-1846
2.276739,-0.7876314,0.16788849,398,-1908
2.2821295,-0.81751466,0.1687088,398,-1970
2.2730823,-0.84243166,0.16848633,397,-2033
2.277712,-0.8725534,0.16930252,397,-2096
2.2727249,-0.89923555,0.16942444,396,-2158
2.2674737,-0.9257196,0.16947052,395,-2220
2.2618067,-0.95237917,0.16959046,395,-2283
2.2787511,-0.9889938,0.17143066,394,-2346
2.290578,-1.0240213,0.1729216,394,-2408
2.2882812,-1.0532135,0.17330094,393,-2471
2.281154,-1.080315,0.17341247,393,-2534
2.278233,-1.1095446,0.17378785,392,-2596
2.2839844,-1.1430469,0.17484374,391,-2658
2.31569,-1.1907806,0.17794007,390,-2721
2.3157806,-1.2230186,0.17864227,390,-2783
2.2890866,-1.2411996,0.17730285,389,-2846
2.384361,-1.3268523,0.18546051,388,-2909
2.4304066,-1.3875197,0.18986481,388,-2972
2.4193888,-1.4165769,0.18986022,387,-3034
2.4036956,-1.443075,0.18951721,386,-3097
2.366502,-1.4562436,0.18740615,385,-3160
2.341999,-1.4767593,0.1863945,385,-3223
2.342416,-1.5132475,0.1873114,384,-3286
2.4343162,-1.6098747,0.19557723,383,-3347
2.4453783,-1.6560571,0.19755615,382,-3410
2.4189315,-1.6771103,0.1964386,381,-3473
2.4044545,-1.7064656,0.19632065,380,-3536
2.3937707,-1.7385715,0.19653259,380,-3599
2.4145396,-1.7945727,0.19938675,379,-3662
2.4185858,-1.8390989,0.20090607,378,-3724
2.4021728,-1.8685532,0.20077057,377,-3787
2.3737938,-1.8886817,0.19964844,376,-3850
2.3683996,-1.9271612,0.2004016,375,-3913
2.3624487,-1.9658874,0.20124145,374,-3976
2.4015343,-2.0434692,0.2058899,373,-4039
2.4204726,-2.105723,0.20898286,372,-4102
2.8222322,-2.5102422,0.24534118,371,-4165
2.4290457,-2.2086616,0.2126532,370,-4227
2.7519383,-2.5579894,0.24278091,369,-4290
2.7019706,-2.5674706,0.2401625,368,-4353
2.4348266,-2.363025,0.21789551,367,-4414
2.4335792,-2.414186,0.21950959,366,-4477
2.4350877,-2.469129,0.2213234,365,-4539
2.4287271,-2.5172935,0.22259231,364,-4602
2.4044485,-2.5473423,0.22226715,363,-4665
2.3731058,-2.5699198,0.22120178,361,-4728
2.3482122,-2.599401,0.22087464,360,-4790
2.2833703,-2.5838692,0.21667556,359,-4853
2.2680612,-2.623748,0.21729355,358,-4915
2.258654,-2.6713216,0.21842071,357,-4978
2.2388868,-2.7074609,0.21860352,356,-5041
2.2122688,-2.7356186,0.21816102,354,-5103
2.154503,-2.7243786,0.21463257,353,-5166
2.1063447,-2.7241607,0.21204528,352,-5228
2.0554824,-2.7191396,0.20916457,351,-5291
1.9574616,-2.6491241,0.20141602,349,-5353
1.9021605,-2.6339593,0.19797409,348,-5416
1.8330662,-2.5974352,0.192939,347,-5478
1.8160167,-2.6337965,0.19346589,346,-5541
1.7927393,-2.661735,0.1932846,344,-5603
1.9034805,-2.8938198,0.20787384,343,-5666
1.8718176,-2.9144697,0.20702668,342,-5728
1.8293381,-2.9178863,0.20499115,340,-5791
1.8156714,-2.9674826,0.20632629,339,-5853
1.780675,-2.9828722,0.20518066,338,-5916
1.7429422,-2.993574,0.20374389,336,-5979
0.3564084,0.61217135,0.04808014,388,5979
0.36052504,0.60394454,0.04793518,389,5916
0.3303093,0.5405872,0.043369446,391,5857
0.34147522,0.5453998,0.044229582,393,5794
0.35547912,0.5542163,0.045419313,394,5732
0.3669992,0.5586264,0.046291504,396,5669
0.37864015,0.56285524,0.04716919,397,5607
0.3875702,0.56279206,0.047704164,399,5544
0.3965689,0.56260437,0.048220824,400,5482
0.38224992,0.5299088,0.04595474,402,5419
0.432435,0.5858847,0.051394958,403,5356
0.45082855,0.59703827,0.052986145,405,5294
0.46950072,0.6078601,0.054587096,406,5231
0.49156174,0.62223405,0.056577757,408,5169
0.49519652,0.61294436,0.056414794,409,5106
0.49549806,0.5998059,0.05589111,410,5043
0.49880219,0.5905212,0.055698395,412,4981
0.45960113,0.5321709,0.050839692,413,4918
0.5082968,0.5757141,0.05571503,414,4855
0.52122986,0.57750183,0.05662903,416,4793
0.5376585,0.58276063,0.05788788,417,4730
0.5439908,0.57681656,0.05805771,418,4667
0.5502745,0.5707997,0.058251802,420,4604
0.55998534,0.5682861,0.058789063,421,4542
0.5838798,0.5796753,0.06080246,422,4479
0.5794437,0.5628076,0.059869993,423,4416
0.59983003,0.5703717,0.061550904,425,4355
0.6133374,0.5705273,0.062471922,426,4292
0.62694246,0.57047117,0.063397214,427,4229
0.6294177,0.56023026,0.063179016,428,4167
0.65057147,0.56636274,0.06485916,430,4104
0.65295225,0.55595034,0.06464172,431,4041
0.67434084,0.5614941,0.06630615,432,3978
0.668865,0.54461104,0.06536072,433,3915
0.6708777,0.53411436,0.06514038,434,3852
0.6767041,0.52671325,0.06529785,435,3789
0.6982959,0.5313086,0.06697754,436,3726
0.6320868,0.47005096,0.060272217,437,3663
0.6250992,0.4542671,0.059246063,438,3600
0.63004225,0.44738466,0.05938797,439,3537
0.85185546,0.59125245,0.07988525,440,3476
0.85001403,0.5762631,0.07930572,441,3413
0.88539827,0.58612704,0.08216309,442,3350
0.93363553,0.6034366,0.08619064,443,3287
0.93173677,0.58784056,0.08561996,444,3224
0.9593689,0.59062225,0.08772949,445,3161
0.95296293,0.5723698,0.08673508,446,3098
0.8774341,0.5139844,0.07946961,446,3036
0.87434906,0.49939024,0.07884461,447,2973
0.8971008,0.4996292,0.08059448,448,2911
0.95069945,0.5159114,0.08503052,449,2848
0.969516,0.5124359,0.0863739,450,2785
0.97062284,0.49951354,0.08611496,451,2723
0.9804932,0.49105224,0.08664246,451,2660
1.0171634,0.49555802,0.08957245,452,2597
1.0450195,0.49507445,0.09168701,453,2534
1.2495301,0.5754913,0.1092865,454,2472
1.2648202,0.56583285,0.11020569,454,2410
1.2709286,0.5519192,0.11037537,455,2347
1.3044257,0.5496173,0.11293091,456,2284
1.3288183,0.5428125,0.11469726,456,2221
1.3346192,0.52839845,0.114873044,457,2159
1.3496399,0.51733243,0.115803525,458,2097
1.3598442,0.50424135,0.11638046,458,2034
1.6092256,0.5767609,0.13733399,459,1971
1.6106918,0.55764955,0.13714233,460,1909
1.6308746,0.54469526,0.13850327,460,1846
1.636718,0.5268494,0.13866119,461,1784
1.6566321,0.5134296,0.14002624,461,1721
1.743296,0.51946336,0.14703369,462,1659
1.8255281,0.5222937,0.15359527,462,1596
1.8647516,0.51164186,0.15659484,462,1534
1.9136398,0.50255007,0.16040893,463,1471
1.9383054,0.48656493,0.1622087,464,1409
2.3312383,0.5581673,0.19471633,464,1346
1.059264,0.24143128,0.08831634,464,1283
1.0520837,0.22771363,0.08757202,465,1221
1.0544897,0.21621093,0.08763794,465,1158
1.0470117,0.20278016,0.08692444,465,1096
1.0442642,0.19045715,0.08658325,466,1033
1.031543,0.17649536,0.08539581,466,970
1.0383224,0.16600281,0.08586685,466,908
1.0499195,0.15610336,0.08674576,467,845
1.0268604,0.14123535,0.08474121,467,783
1.028352,0.13,0.08477295,467,720
1.0297168,0.11876465,0.08483642,467,657
1.0309546,0.10749756,0.08486816,468,595
1.0171798,0.094811246,0.083675385,468,532
1.0330493,0.08493164,0.08493164,468,469
1.0339062,0.073632814,0.08496338,468,407
1.0595073,0.063799895,0.087005764,468,344
1.0701119,0.05271988,0.08785553,468,282
1.0506858,0.040245056,0.08622101,468,219
1.0311465,0.028206024,0.08461807,468,156
1.0413644,0.017093506,0.08543564,468,94
1.041492,0.0057084654,0.08543564,468,31
1.041492,-0.0057084654,0.08543564,468,-31
1.046347,-0.017175293,0.08584442,468,-94
1.0610348,-0.02902359,0.08707077,468,-156
1.0755835,-0.04119873,0.08826416,468,-219
1.0750891,-0.05296509,0.08826416,468,-282
1.0644815,-0.06409942,0.08741424,468,-344
1.0289356,-0.07327881,0.0845549,468,-407
1.0380158,-0.08533996,0.08533996,468,-469
1.0271035,-0.095736235,0.08449173,468,-532
1.0259981,-0.10698074,0.08446015,468,-595
1.0247662,-0.11819366,0.084428556,467,-657
1.028352,-0.13,0.08477295,467,-720
1.0317972,-0.14191437,0.08514862,467,-783
1.0548487,-0.15683624,0.08715302,467,-845
1.0235596,-0.16364259,0.084645994,466,-908
1.036455,-0.17733581,0.08580246,466,-970
1.0393616,-0.18956299,0.08617676,466,-1033
1.0519043,-0.20372772,0.087330624,465,-1096
1.0593716,-0.21721192,0.08804367,465,-1158
1.0569545,-0.22876786,0.08797745,465,-1221
1.059264,-0.24143128,0.08831634,464,-1283
1.298902,-0.3109955,0.1084906,464,-1346
2.2476609,-0.5642212,0.18809739,464,-1409
2.2606978,-0.5936926,0.18950073,463,-1471
2.2684608,-0.62240964,0.19049683,462,-1534
2.2759209,-0.65115356,0.19149017,462,-1596
2.2734492,-0.6774371,0.19174805,462,-1659
2.2754889,-0.705228,0.1923349,461,-1721
2.2771728,-0.7330078,0.19291992,461,-1784
2.269043,-0.75783694,0.19270019,460,-1846
2.2841682,-0.7908188,0.19448547,460,-1909
2.2895105,-0.8205811,0.19539063,459,-1971
2.27108,-0.842135,0.19436736,458,-2034
2.275772,-0.87232953,0.1952687,458,-2097
2.266072,-0.8971765,0.19504486,457,-2159
2.2654507,-0.9254199,0.1955429,456,-2221
2.2551866,-0.9502187,0.19524322,456,-2284
2.2766995,-0.9886899,0.19772278,455,-2347
2.2885058,-1.0237911,0.19940095,454,-2410
2.2862778,-1.0529823,0.19996262,454,-2472
2.2882323,-1.0840423,0.20076294,453,-2534
2.2762952,-1.1090021,0.20045288,452,-2597
2.2774181,-1.1405804,0.2012468,451,-2660
2.3135395,-1.1906214,0.20526032,451,-2723
2.3092108,-1.2205292,0.20572692,450,-2785
2.286936,-1.2410403,0.20454346,449,-2848
2.4038818,-1.3388122,0.21596192,448,-2911
2.4282665,-1.3869205,0.21896942,447,-2973
2.421546,-1.4184961,0.21932052,446,-3036
2.405911,-1.4450413,0.2189769,446,-3098
2.3644624,-1.4556487,0.21621826,445,-3161
2.339882,-1.4762512,0.21501847,444,-3224
2.3613024,-1.5261804,0.2179889,443,-3287
2.4275708,-1.6070337,0.22527343,442,-3350
2.4303799,-1.6476649,0.22675277,441,-3413
2.4163208,-1.6771103,0.22659759,440,-3476
2.406355,-1.7087207,0.22682373,439,-3537
2.3794098,-1.7291458,0.22551727,438,-3600
2.4083307,-1.7909536,0.22964478,437,-3663
2.4162626,-1.8384485,0.2317575,436,-3726
2.399939,-1.8679947,0.23157959,435,-3789
2.3714745,-1.8880322,0.23026367,434,-3852
2.3661585,-1.9266009,0.23121826,433,-3915
2.3601928,-1.9652295,0.23207153,432,-3978
2.403016,-2.0460265,0.23789658,431,-4041
2.8354385,-2.468425,0.28268096,430,-4104
2.4431837,-2.1746216,0.24523926,428,-4167
2.426636,-2.208059,0.24538451,427,-4229
2.7490659,-2.5571852,0.28000808,426,-4292
2.4535215,-2.3330264,0.25176543,425,-4355
2.4393864,-2.3693507,0.25204527,423,-4416
2.4275248,-2.410044,0.25279084,422,-4479
2.4429362,-2.4791481,0.25646728,421,-4542
2.429514,-2.5201347,0.2571872,420,-4604
2.4120345,-2.5575829,0.2574257,418,-4667
2.3704317,-2.569278,0.25521636,417,-4730
2.3421931,-2.5950563,0.2544676,416,-4793
2.2741332,-2.57576,0.24927048,414,-4855
2.2621503,-2.6193376,0.25023225,413,-4918
2.2623093,-2.6782997,0.25261918,412,-4981
2.2646801,-2.7414205,0.25545105,410,-5043
2.2753968,-2.8164403,0.25922242,409,-5106
2.247581,-2.8450575,0.25869203,408,-5169
2.2316527,-2.8893092,0.25946593,406,-5231
2.203049,-2.917527,0.25892562,405,-5294
1.9548432,-2.64852,0.23233338,403,-5356
1.9024957,-2.6374085,0.22872132,402,-5419
1.8276654,-2.5928724,0.22223511,400,-5482
1.8162048,-2.6373174,0.22354798,399,-5544
1.8124613,-2.6942556,0.22578782,397,-5607
1.9253764,-2.930704,0.24285766,396,-5669
1.8958887,-2.9558203,0.24223633,394,-5732
1.8556134,-2.9637616,0.24034835,393,-5794
1.8049972,-2.9540746,0.23699524,391,-5857
1.7744992,-2.9726064,0.23593628,389,-5916
1.7644725,-3.0306792,0.23803055,388,-5979
0.3507904,0.6033783,0.053704835,440,5982
0.3624536,0.6080545,0.054688722,441,5920
0.33267578,0.5444922,0.049492188,443,5857
0.3438843,0.54927063,0.050463866,445,5795
0.35523742,0.55385375,0.05144165,447,5732
0.3667334,0.55825835,0.052425537,448,5669
0.39195833,0.5833763,0.05540085,450,5610
0.39263427,0.57083833,0.054827116,452,5547
0.40458757,0.5746413,0.055831145,454,5485
0.39334488,0.54592437,0.053640746,455,5422
0.43476883,0.58971816,0.05863312,457,5360
0.45018768,0.5968323,0.060035706,459,5297
0.46886626,0.6076486,0.061848145,460,5234
0.48473176,0.61421555,0.06329254,462,5171
0.4913916,0.6088733,0.063508146,464,5109
0.5043718,0.6111223,0.06453552,465,5046
0.49494964,0.5864999,0.06271759,467,4983
0.46225402,0.5357718,0.058003847,468,4921
0.5043425,0.5717656,0.062707216,470,4858
0.513913,0.56991,0.06332855,471,4795
0.53700346,0.58254224,0.065578766,473,4732
0.54333574,0.5765982,0.06579712,474,4670
0.5461627,0.5670169,0.06557617,476,4607
0.562822,0.5716414,0.06701782,477,4544
0.5829483,0.57970047,0.06890945,479,4483
0.5856964,0.56975585,0.06869201,480,4420
0.5955368,0.56670916,0.06931229,481,4357
0.61629194,0.57371706,0.07119888,483,4295
0.62992585,0.57359207,0.07222412,484,4232
0.6287215,0.55999815,0.07158569,485,4169
0.6461023,0.562879,0.07304016,487,4106
0.6560358,0.558945,0.0736496,488,4043
0.6583063,0.5484967,0.07343384,489,3980
0.64881593,0.52864015,0.071905516,491,3917
0.66627276,0.53077424,0.0733461,492,3854
0.67599547,0.52647704,0.07395874,493,3791
0.6974097,0.5312549,0.07589355,494,3729
0.6392822,0.47595215,0.069165036,495,3666
0.64043015,0.46596587,0.06887832,497,3603
0.64144105,0.45599547,0.068589784,498,3540
0.85505795,0.593808,0.09095276,499,3477
0.8532875,0.57877624,0.09027191,500,3414
0.88864076,0.5885849,0.09352051,501,3351
0.92431796,0.5977211,0.096781924,502,3288
0.93925005,0.59285414,0.09786194,503,3226
0.95826536,0.5905188,0.09938537,504,3164
0.9476056,0.56970155,0.09782959,505,3101
0.88076556,0.51641005,0.090494536,506,3038
0.87339354,0.4992978,0.08935516,507,2975
0.88751954,0.49452943,0.09039551,508,2912
0.94977236,0.5156465,0.09632156,509,2849
0.96847534,0.5123016,0.097854614,510,2787
0.97847533,0.5039404,0.09846802,511,2724
0.9794525,0.49091798,0.09819031,512,2662
1.0250769,0.49978438,0.1023819,512,2599
1.0304581,0.48853287,0.102521665,513,2536
1.2437019,0.5731964,0.12336731,514,2474
1.2680928,0.5676553,0.12533203,515,2411
1.2787902,0.555719,0.12595215,516,2348
1.3031256,0.5494006,0.1279248,516,2286
1.327456,0.54276854,0.12994629,517,2223
1.3286712,0.5263448,0.12967026,518,2161
1.3529618,0.5188944,0.13165513,519,2098
1.3865227,0.51441145,0.13455093,519,2035
1.61229,0.57833743,0.15605347,520,1973
1.6091263,0.5573886,0.15535492,521,1910
1.6292427,0.54459,0.15692826,521,1848
1.6398255,0.5282181,0.1575415,522,1785
1.6550391,0.51316404,0.15861145,523,1722
1.7463968,0.520719,0.16703887,523,1660
1.823784,0.5221193,0.17405914,524,1597
1.858115,0.510146,0.17697738,524,1535
1.9069464,0.5011029,0.18127441,525,1472
1.9219217,0.4827426,0.18237214,525,1409
1.554256,0.37240037,0.14723602,526,1347
1.0582328,0.24133149,0.10005859,526,1284
1.0607941,0.22975555,0.100158386,527,1222
1.053468,0.21614502,0.09930542,527,1159
1.0459994,0.20271485,0.098451234,527,1096
1.0481546,0.19128601,0.098549195,528,1034
1.0452718,0.17895173,0.09815369,528,971
1.0471568,0.1675438,0.09821869,529,909
1.0489119,0.15607086,0.098251194,529,846
1.0258765,0.14120361,0.0960083,529,783
1.0224289,0.12934342,0.095609896,530,720
1.0287329,0.11873291,0.09610352,530,658
1.0349225,0.10798249,0.09659744,530,595
1.0211673,0.09524231,0.09524231,530,532
1.0320654,0.0848999,0.09619873,530,470
1.0428543,0.074308775,0.097155765,530,407
1.0634693,0.06409942,0.099039,531,344
1.0740674,0.05293213,0.09999756,531,282
1.0496876,0.04021286,0.097682804,531,219
1.0251907,0.028069763,0.09539948,531,156
1.0403758,0.017093506,0.09678879,531,94
1.0405034,0.0057084654,0.09678879,531,31
1.0405034,-0.0057084654,0.09678879,531,-31
1.0503316,-0.01725708,0.097715,531,-94
1.0600274,-0.02902359,0.0986412,531,-156
1.0894862,-0.04173752,0.10138641,531,-219
1.0641223,-0.052442018,0.09907165,531,-282
1.0634693,-0.06409942,0.099039,531,-344
1.0428543,-0.074308775,0.097155765,530,-407
1.0370272,-0.085308075,0.096661225,530,-470
1.0261245,-0.09570465,0.09570465,530,-532
1.0250189,-0.10694916,0.09567306,530,-595
1.0287329,-0.11873291,0.09610352,530,-658
1.0372467,-0.13121796,0.09699555,530,-720
1.0357406,-0.14256135,0.09693146,529,-783
1.0538363,-0.1568036,0.09871247,529,-846
1.0274919,-0.16439743,0.096374206,529,-909
1.035457,-0.17727143,0.09723206,528,-971
1.0285629,-0.18771057,0.09670715,528,-1034
1.031336,-0.19987305,0.097071074,527,-1096
1.0485909,-0.21514435,0.098845676,527,-1159
1.0607941,-0.22975555,0.100158386,527,-1222
1.063087,-0.24243851,0.10051758,526,-1284
1.2976342,-0.31091368,0.12292603,526,-1347
2.2454612,-0.56400836,0.21307297,525,-1409
2.2584794,-0.59347796,0.21469116,525,-1472
2.2614267,-0.6208754,0.21539108,524,-1535
2.2737465,-0.6509361,0.21700287,524,-1597
2.27127,-0.6772192,0.21724182,523,-1660
2.268545,-0.7033887,0.21740708,523,-1722
2.2749023,-0.7327881,0.21855469,522,-1785
2.26205,-0.7561119,0.2178801,521,-1848
2.2772431,-0.78881896,0.219859,521,-1910
2.2872021,-0.8204321,0.22137818,520,-1973
2.278192,-0.84522825,0.22108032,519,-2035
2.2735336,-0.87195647,0.22123489,519,-2098
2.2684631,-0.8986374,0.22138825,518,-2161
2.258519,-0.92346036,0.22108917,517,-2223
2.252939,-0.94984406,0.22116578,516,-2286
2.283554,-0.99235535,0.22491455,516,-2348
2.2907484,-1.0254419,0.22640625,515,-2411
2.2884116,-1.0546814,0.22699586,514,-2474
2.285907,-1.0837322,0.22742797,513,-2536
2.2739697,-1.108692,0.22711793,512,-2599
2.275001,-1.1402686,0.2280693,512,-2662
2.3111498,-1.1903027,0.23258057,511,-2724
2.30233,-1.2178807,0.23262711,510,-2787
2.2847059,-1.2404032,0.23170441,509,-2849
2.4015234,-1.3381385,0.24459961,508,-2912
2.4256127,-1.3866637,0.24815963,507,-2975
2.4360685,-1.4283147,0.25029466,506,-3038
2.403162,-1.4447837,0.24809937,505,-3101
2.3575025,-1.4527807,0.24450561,504,-3164
2.3418074,-1.4781476,0.24399658,503,-3226
2.3547103,-1.5227013,0.24655303,502,-3288
2.4250758,-1.6062317,0.25521484,501,-3351
2.4279532,-1.6468561,0.25686064,500,-3414
2.4138,-1.6763,0.2567566,499,-3477
2.3993142,-1.705654,0.2565605,498,-3540
2.3804667,-1.7319864,0.25601944,497,-3603
2.3973083,-1.7848206,0.2593689,495,-3666
2.4131958,-1.8382627,0.26260895,494,-3729
2.3934956,-1.864096,0.26186553,493,-3791
2.3650734,-1.8840933,0.2603572,492,-3854
2.3635437,-1.9257605,0.26194152,491,-3917
2.3538277,-1.9611946,0.26256865,489,-3980
2.4079926,-2.051619,0.27033234,488,-4043
2.42664,-2.114069,0.27432525,487,-4106
2.4330404,-2.1670935,0.2770239,485,-4169
2.4239252,-2.2071555,0.27791503,484,-4232
2.425054,-2.2575257,0.2801613,483,-4295
2.447115,-2.3286593,0.28481048,481,-4357
2.4392114,-2.3728247,0.2860771,480,-4420
2.4271848,-2.413662,0.2869139,479,-4483
2.4365647,-2.4747458,0.29013306,477,-4544
2.4266217,-2.5192776,0.29135743,476,-4607
2.4022956,-2.549362,0.2909143,474,-4670
2.3742983,-2.5756428,0.28994888,473,-4732
2.3426423,-2.5979013,0.2886795,471,-4795
2.2744858,-2.5785508,0.28279725,470,-4858
2.2656958,-2.6260364,0.28430054,468,-4921
2.2819107,-2.7039933,0.28915253,467,-4983
2.3029807,-2.7904074,0.29467162,465,-5046
2.2785547,-2.8233106,0.29448363,464,-5109
2.2939854,-2.9067652,0.29953095,462,-5171
2.2347262,-2.8961954,0.29478273,460,-5234
2.199917,-2.9165204,0.29337448,459,-5297
1.954981,-2.651726,0.26364958,457,-5360
1.8967965,-2.6325686,0.2586676,455,-5422
1.8278176,-2.5960743,0.25223008,454,-5485
1.8162866,-2.6406405,0.25362474,452,-5547
1.7846613,-2.656224,0.25225067,450,-5610
1.9267187,-2.9329395,0.2754297,448,-5669
1.8945996,-2.9538867,0.27435547,447,-5732
1.8490393,-2.9533858,0.27134034,445,-5795
1.8063256,-2.9564223,0.26872712,443,-5857
1.7739807,-2.9760413,0.26766664,441,-5920
1.7589633,-3.0255113,0.26929137,440,-5982
0.35765275,0.61608964,0.061292574,491,5986
0.35925567,0.6035573,0.060671996,493,5923
0.34246767,0.5613062,0.057020873,495,5861
0.34330902,0.5490524,0.056394957,497,5798
0.3573401,0.55784667,0.057919618,499,5735
0.37160522,0.5663623,0.059454344,501,5673
0.39131287,0.5831612,0.061898347,503,5613
0.39765975,0.57881516,0.06213501,505,5551
0.40967178,0.582574,0.063256375,507,5488
0.39856598,0.5537822,0.06081131,509,5425
0.43116516,0.58546144,0.06505127,511,5363
0.4465271,0.59262604,0.0666153,513,5300
0.47120133,0.61135787,0.06955795,514,5237
0.48709595,0.61788666,0.071145326,516,5175
0.49382234,0.61248624,0.07138641,518,5112
0.50683594,0.6146973,0.07253418,520,5049
0.5071063,0.60149264,0.07186859,521,4986
0.4778801,0.55439025,0.06708939,523,4923
0.50366545,0.57153213,0.070061184,525,4861
0.5265381,0.5844476,0.072567746,527,4798
0.5329269,0.5786133,0.07280884,528,4735
0.5458008,0.5802002,0.07397461,530,4674
0.552124,0.57416993,0.07421875,532,4612
0.55837405,0.568042,0.074438475,533,4549
0.58927536,0.5864468,0.0779245,535,4486
0.5849707,0.56950563,0.076749876,537,4423
0.6055957,0.57673097,0.078826904,538,4360
0.6191864,0.57682645,0.07999878,540,4297
0.6217847,0.5665997,0.0797345,541,4234
0.6391211,0.5696503,0.08138611,543,4171
0.6528186,0.5691321,0.08254486,544,4108
0.6590314,0.56188387,0.082757264,545,4045
0.6611569,0.5516064,0.082519226,547,3983
0.6478931,0.52856326,0.08033936,548,3920
0.64977,0.518282,0.080065005,550,3857
0.67897534,0.52943236,0.08312637,551,3794
0.69663084,0.5309595,0.08478271,552,3731
0.6385498,0.4756836,0.07724609,554,3668
0.6477489,0.47155684,0.07790085,555,3605
0.64882815,0.46149904,0.07758789,556,3542
0.8539418,0.59368044,0.1016362,558,3480
0.8562988,0.58144534,0.10134033,559,3417
0.86264646,0.57195556,0.1015625,560,3354
0.9273486,0.60029024,0.10863556,561,3291
0.9422998,0.5953418,0.10981934,562,3228
0.9529953,0.58756256,0.110515594,563,3165
0.94645387,0.56953216,0.10931305,565,3103
0.8754108,0.51373535,0.100636594,566,3040
0.8766641,0.5016147,0.10032913,567,2977
0.8994974,0.5016124,0.10249557,568,2914
0.93116,0.5059465,0.10562897,569,2851
0.97173095,0.5144617,0.10983231,570,2789
0.9729065,0.50145876,0.10950317,571,2726
0.9827917,0.4929808,0.110203244,572,2663
1.0238888,0.49960968,0.11436722,573,2601
1.0472841,0.49685287,0.11654267,574,2538
1.2332822,0.5687778,0.13679993,575,2475
1.2394474,0.55523944,0.1370082,576,2413
1.2636942,0.54951125,0.13922699,576,2350
1.3016089,0.54931396,0.14296204,577,2288
1.3213578,0.54062116,0.14469117,578,2225
1.3272262,0.526082,0.14486633,579,2162
1.3421196,0.5151958,0.14609635,580,2100
1.3849819,0.5142755,0.15032181,580,2037
1.6058236,0.57649916,0.17386566,581,1974
1.607352,0.55717987,0.1735675,582,1911
1.6227356,0.54269654,0.17473999,583,1849
1.6380304,0.5280597,0.17601989,583,1786
1.6531806,0.5130048,0.17719665,584,1723
1.7349097,0.5176514,0.1855658,585,1661
1.8360938,0.5261133,0.19599609,585,1598
1.8609033,0.5112274,0.19821534,586,1536
1.8855908,0.49592164,0.20049804,587,1473
1.9197961,0.48256043,0.20374909,587,1410
1.5767245,0.37805176,0.16703919,588,1348
1.0570685,0.2412317,0.11180084,588,1285
1.0644906,0.23070922,0.11238053,589,1222
1.0523474,0.21604614,0.11093994,589,1160
1.0497391,0.2035965,0.11052475,590,1097
1.0421191,0.19032715,0.109561615,590,1035
1.0441343,0.17888671,0.10962662,590,972
1.0509301,0.16823243,0.11023926,591,909
1.0477743,0.15600586,0.109789126,591,846
1.0247656,0.14114013,0.10727539,592,784
1.0213234,0.12928024,0.10679123,592,721
1.0276221,0.118669435,0.10737061,592,658
1.0288599,0.10740235,0.10740235,592,595
1.0151154,0.09474869,0.10591583,593,533
1.016085,0.08364411,0.105947115,593,470
1.0417328,0.07427673,0.10856323,593,407
1.0623263,0.064066775,0.11066376,593,345
1.077881,0.053177185,0.11221512,593,282
1.0584998,0.040594026,0.11017914,593,219
1.0290619,0.028174438,0.1070755,593,156
1.0442321,0.01714325,0.108659364,593,94
1.0393872,0.0056765745,0.10814194,593,31
1.0443604,-0.005703735,0.108659364,593,-31
1.0442321,-0.01714325,0.108659364,593,-94
1.078775,-0.029535523,0.11224823,593,-156
1.1032251,-0.042309266,0.11483459,593,-219
1.0729138,-0.05293213,0.111698,593,-282
1.0772188,-0.064964905,0.11221512,593,-345
1.0318115,-0.073569335,0.1075293,593,-407
1.0210415,-0.08405212,0.10646393,593,-470
1.0250189,-0.09567306,0.10694916,593,-533
1.0239134,-0.106885985,0.106885985,592,-595
1.0276221,-0.118669435,0.10737061,592,-658
1.0213234,-0.12928024,0.10679123,592,-721
1.0493994,-0.14453293,0.109854124,592,-784
1.0625317,-0.15820312,0.11133545,591,-846
1.0214648,-0.16351563,0.10714844,591,-909
1.014722,-0.17384766,0.10653854,590,-972
1.0176562,-0.18585938,0.10698975,590,-1035
1.0253265,-0.19886169,0.107954405,590,-1097
1.0328594,-0.21204528,0.1088855,589,-1160
1.0596298,-0.22965576,0.11186737,589,-1222
1.0619174,-0.24233826,0.11231369,588,-1285
1.296203,-0.31079102,0.13732056,588,-1348
2.2236834,-0.5589456,0.23600082,587,-1410
2.2463543,-0.5908046,0.23885864,587,-1473
2.2493908,-0.6179527,0.23959534,586,-1536
2.2616467,-0.648051,0.24142227,585,-1598
2.2734942,-0.6783508,0.24317276,585,-1661
2.261247,-0.70169616,0.24237244,584,-1723
2.2629437,-0.72951597,0.24317199,583,-1786
2.2548478,-0.7540958,0.24280731,583,-1849
2.274732,-0.78852355,0.24563354,582,-1911
2.2846704,-0.8202087,0.24736573,581,-1974
2.2756605,-0.84500486,0.24699341,580,-2037
2.266278,-0.86994994,0.24669556,580,-2100
2.2659957,-0.89818877,0.24733277,579,-2162
2.255977,-0.9230118,0.24703369,578,-2225
2.2503169,-0.9496942,0.24716324,577,-2288
2.253664,-0.97999483,0.24829651,576,-2350
2.2791302,-1.0209897,0.2519345,576,-2413
2.2858636,-1.0542182,0.2535559,575,-2475
2.2878437,-1.0853996,0.2545932,574,-2538
2.266863,-1.1061227,0.253206,573,-2601
2.267981,-1.137648,0.2543152,572,-2663
2.312864,-1.1921042,0.2603189,571,-2726
2.3040137,-1.2198095,0.26041687,570,-2789
2.2819977,-1.2399253,0.25886536,569,-2851
2.411696,-1.3449028,0.27480698,568,-2914
2.4270208,-1.3887067,0.27775848,567,-2977
2.4202533,-1.4203272,0.27823058,566,-3040
2.3959777,-1.4417887,0.27672943,565,-3103
2.3591928,-1.4545437,0.2735875,563,-3165
2.3431294,-1.4803811,0.27307755,562,-3228
2.3517895,-1.5223576,0.2755037,561,-3291
2.422046,-1.6058753,0.28515625,560,-3354
2.4248078,-1.6464965,0.28696853,559,-3417
2.410649,-1.6759399,0.2869156,558,-3480
2.3966088,-1.704662,0.28659028,556,-3542
2.3777614,-1.7309945,0.285959,555,-3605
2.3945618,-1.7838135,0.28967285,554,-3668
2.410501,-1.8372405,0.29336748,552,-3731
2.3901503,-1.8637244,0.29262406,551,-3794
2.3617392,-1.8838154,0.2910147,550,-3857
2.352469,-1.9191879,0.29170838,548,-3920
2.3465338,-1.9577246,0.2928717,547,-3983
2.4050858,-2.050553,0.30201644,545,-4045
2.423683,-2.1129847,0.30645967,544,-4108
2.4301465,-2.1659958,0.30945647,543,-4171
2.7925122,-2.5446699,0.35809752,541,-4234
2.4293962,-2.2631958,0.31387755,540,-4297
2.717971,-2.5884235,0.35378265,538,-4360
2.439756,-2.375255,0.32010314,537,-4423
2.4276733,-2.4160204,0.32103026,535,-4486
2.432417,-2.4745328,0.3242726,533,-4549
2.425895,-2.5227592,0.32609862,532,-4612
2.3981123,-2.5492547,0.32502595,530,-4674
2.3745606,-2.578125,0.32441407,528,-4735
2.3427613,-2.6004221,0.32288057,527,-4798
2.2648487,-2.5700269,0.3150464,525,-4861
2.2658668,-2.6286395,0.3181041,523,-4923
2.2819784,-2.7067168,0.32340866,521,-4986
2.3061035,-2.7968726,0.33003053,520,-5049
2.328466,-2.887989,0.33660048,518,-5112
2.2967498,-2.9134529,0.3354637,516,-5175
2.2617664,-2.9345179,0.33387816,514,-5237
2.223645,-2.951198,0.33173522,513,-5300
1.9343369,-2.6265564,0.2918396,511,-5363
1.896825,-2.635518,0.28940856,509,-5425
1.8220367,-2.5910285,0.28133607,507,-5488
1.810621,-2.6354563,0.2829126,505,-5551
1.7706213,-2.638701,0.28007904,503,-5613
1.9236035,-2.931758,0.30776367,501,-5673
1.8941711,-2.957007,0.3070175,499,-5735
1.8433053,-2.9479892,0.30279756,497,-5798
1.8031441,-2.9553618,0.30022353,495,-5861
1.7657034,-2.96642,0.2981964,493,-5923
1.7882637,-3.0804482,0.30646285,491,-5986
0.35196212,0.6071933,0.06676071,543,5990
0.3611319,0.60755616,0.06751587,545,5927
0.35220215,0.57804567,0.06491211,547,5864
0.34794617,0.5572577,0.06326477,550,5801
0.35904542,0.56197965,0.06448913,552,5742
0.3733551,0.57048494,0.066183776,554,5679
0.3906459,0.58288145,0.06837433,556,5617
0.40260208,0.58676344,0.06960602,558,5554
0.41185546,0.5863623,0.07035644,560,5491
0.40082246,0.55755067,0.06767761,562,5428
0.4275261,0.58116376,0.07137604,564,5366
0.4428302,0.5883551,0.07310119,566,5303
0.47046813,0.6110504,0.0768425,569,5240
0.4771141,0.6058472,0.07710266,570,5177
0.48995423,0.60829836,0.07836106,572,5115
0.5092175,0.61821973,0.08062775,574,5052
0.50633484,0.6011792,0.07939056,576,4989
0.48367706,0.5616374,0.07511841,578,4926
0.50594693,0.5751736,0.077921145,580,4866
0.5188733,0.57697815,0.07919495,582,4803
0.53528094,0.5822026,0.08096054,584,4740
0.5484259,0.58350706,0.08224914,586,4677
0.54789686,0.57026595,0.081470035,588,4614
0.5611023,0.5712729,0.08274048,589,4551
0.5884599,0.5861156,0.08607879,591,4488
0.59485596,0.57956666,0.08630814,593,4425
0.60840106,0.5798286,0.08759964,595,4362
0.6144869,0.5733302,0.0878833,596,4301
0.6280994,0.5732007,0.08915817,598,4238
0.6454907,0.5761679,0.09096131,600,4175
0.64803725,0.5657292,0.090676114,601,4112
0.6617775,0.56497955,0.09196472,603,4048
0.6603122,0.5512897,0.091151275,604,3985
0.6586276,0.5376627,0.09033234,606,3922
0.65284055,0.52105224,0.08895264,607,3859
0.6740271,0.5262408,0.09133301,609,3798
0.68372697,0.52177703,0.0920752,611,3734
0.63762206,0.47556153,0.085351564,612,3671
0.63878036,0.46555343,0.085012205,613,3608
0.6479248,0.46135253,0.08574219,615,3545
0.86516416,0.6017816,0.113867186,616,3482
0.86745805,0.58963835,0.11358765,618,3420
0.89457273,0.5937561,0.116542965,619,3357
0.9260614,0.600087,0.120017394,620,3294
0.94940275,0.60045046,0.122421265,621,3231
0.951725,0.58732224,0.1221199,623,3167
0.9494582,0.5718594,0.12130661,624,3106
0.8699734,0.5110312,0.11064392,625,3043
0.875518,0.50139785,0.11082977,626,2979
0.8896492,0.49657822,0.112140656,628,2916
0.9212254,0.5009705,0.115615994,629,2853
0.9661255,0.5118988,0.12078247,630,2791
0.9804977,0.50578034,0.12208374,631,2728
0.9904268,0.49720398,0.12283783,632,2665
1.0180609,0.4973236,0.12583557,633,2603
1.0548751,0.5010101,0.12987824,634,2540
1.227229,0.5664038,0.15057617,635,2477
1.246891,0.55913925,0.15248871,636,2415
1.2802702,0.55727494,0.15603012,637,2352
1.3000488,0.5489673,0.1579126,638,2289
1.3380867,0.54797834,0.16207123,639,2227
1.3393738,0.53140414,0.16173553,640,2164
1.3404438,0.51501936,0.16139832,641,2101
1.4018894,0.5210181,0.16832963,642,2038
1.5991589,0.5745575,0.19151917,643,1976
1.605369,0.55697113,0.1917279,643,1913
1.6301639,0.54574615,0.19423431,644,1850
1.645481,0.53084654,0.19556946,645,1788
1.6606522,0.51579285,0.19690704,646,1725
1.7470803,0.52174973,0.2067511,646,1662
1.8195401,0.52171236,0.21481247,647,1599
1.8682343,0.5136841,0.22012481,648,1537
1.8785135,0.49447754,0.2209279,648,1474
1.9223062,0.48359025,0.22569168,649,1412
1.5748343,0.37790254,0.18454894,650,1349
1.0558045,0.24116516,0.123509824,650,1286
1.0583658,0.22955596,0.12360962,651,1223
1.055928,0.21698013,0.12314194,651,1161
1.0533361,0.20447753,0.12267334,652,1098
1.0408516,0.19022964,0.12106705,652,1035
1.0526588,0.18050079,0.12226944,653,972
1.0447518,0.16741379,0.12122955,653,910
1.0465068,0.15594086,0.12129456,653,847
1.0284805,0.14175491,0.119080506,654,784
1.0250195,0.12984131,0.11857422,654,721
1.0165153,0.11746552,0.11746552,654,659
1.0325626,0.10788681,0.119239956,655,596
1.023787,0.09564148,0.11816208,655,533
1.0247662,0.084428556,0.11819366,655,470
1.0355284,0.07389114,0.119367525,655,408
1.0610528,0.06403412,0.12225586,656,345
1.0716285,0.05289917,0.1234314,656,282
1.0572323,0.040561523,0.12171707,656,219
1.0228647,0.02803833,0.11774841,656,157
1.0380158,0.017061615,0.1194632,656,94
1.0431106,0.005703735,0.12003479,656,31
1.0431106,-0.005703735,0.12003479,656,-31
1.0529157,-0.017306518,0.12117798,656,-94
1.0625876,-0.029127197,0.122321166,656,-157
1.0870134,-0.041704103,0.12514572,656,-219
1.0517834,-0.051919557,0.12114563,656,-282
1.0560946,-0.0637349,0.12168457,656,-345
1.0305737,-0.073537596,0.118796386,655,-408
1.0445685,-0.086060025,0.1204776,655,-470
1.023787,-0.09564148,0.11816208,655,-533
1.0226816,-0.1068544,0.11809891,655,-596
1.0214497,-0.11803573,0.11803573,654,-659
1.0447315,-0.13233826,0.12085449,654,-721
1.0383224,-0.14311142,0.120220035,654,-784
1.0415937,-0.15520874,0.120725095,653,-847
1.0153221,-0.16269791,0.11781464,653,-910
1.0281785,-0.1763031,0.11942597,653,-972
1.0310783,-0.18844345,0.11993027,652,-1035
1.0289534,-0.19974427,0.11983368,652,-1098
1.04133,-0.2139804,0.12143952,651,-1161
1.0583658,-0.22955596,0.12360962,651,-1223
1.0558045,-0.24116516,0.123509824,650,-1286
1.2994798,-0.31182754,0.1522812,650,-1349
2.2354639,-0.5623706,0.2624585,649,-1412
2.2532554,-0.5931201,0.26500046,648,-1474
2.265833,-0.6230066,0.2669719,648,-1537
2.2732313,-0.65179807,0.26837462,647,-1599
2.2612076,-0.67528915,0.26759338,646,-1662
2.2679763,-0.70442563,0.26891875,646,-1725
2.2790856,-0.735253,0.27087495,645,-1788
2.2662106,-0.7586818,0.27001938,644,-1850
2.30009,-0.79799956,0.27469787,643,-1913
2.2958686,-0.8248764,0.2749588,643,-1976
2.2914605,-0.85163087,0.27514344,642,-2038
2.2680867,-0.87143415,0.27309266,641,-2101
2.2584612,-0.8960573,0.27271956,640,-2164
2.2623322,-0.92647886,0.27401733,639,-2227
2.2613525,-0.9548938,0.27467895,638,-2289
2.2689486,-0.987626,0.27652314,637,-2352
2.2761428,-1.0206833,0.2783612,636,-2415
2.283007,-1.0536777,0.28011596,635,-2477
2.280326,-1.0830346,0.28075805,634,-2540
2.2727764,-1.1102531,0.28092238,633,-2603
2.2651017,-1.1371033,0.28092957,632,-2665
2.3054948,-1.1892673,0.28706178,631,-2728
2.3099182,-1.2239035,0.2887799,630,-2791
2.2834165,-1.2417419,0.28657424,629,-2853
2.4259214,-1.354084,0.30578843,628,-2916
2.4497254,-1.402926,0.31010497,626,-2979
2.438497,-1.4323977,0.31013,625,-3043
2.3970625,-1.4437528,0.30625838,624,-3106
2.3771975,-1.4670005,0.30502838,623,-3167
2.3525023,-1.4878418,0.30334473,621,-3231
2.348525,-1.5218422,0.30436844,620,-3294
2.4228013,-1.6080894,0.3156372,619,-3357
2.437927,-1.6571354,0.31922972,618,-3420
2.4077682,-1.6747696,0.31689453,616,-3482
2.3892226,-1.7012374,0.31617433,615,-3545
2.3743346,-1.7304534,0.31598878,613,-3608
2.395068,-1.786328,0.32060182,612,-3671
2.4147813,-1.8428079,0.32519042,611,-3734
2.3826075,-1.8602002,0.32285157,609,-3798
2.366547,-1.8888144,0.32245332,607,-3859
2.3494904,-1.9179779,0.32223815,606,-3922
2.3435357,-1.9566003,0.323508,604,-3985
2.88535,-2.463311,0.4009662,603,-4048
2.4385679,-2.1288424,0.34121475,601,-4112
2.422445,-2.1622853,0.34136626,600,-4175
2.7915528,-2.5475585,0.39625853,598,-4238
2.4215872,-2.259396,0.346333,596,-4301
2.412004,-2.298729,0.34728852,595,-4362
2.436416,-2.3737938,0.3535016,593,-4425
2.424314,-2.4146557,0.35462403,591,-4488
2.4291198,-2.4731503,0.35819948,589,-4551
2.4190164,-2.517778,0.35969788,588,-4614
2.3980858,-2.5514843,0.35964844,586,-4677
2.3700488,-2.5778027,0.3584668,584,-4740
2.338256,-2.6001003,0.35688493,582,-4803
2.2701905,-2.5808115,0.3496332,580,-4866
2.265816,-2.6310263,0.35189697,578,-4926
2.2881207,-2.7167213,0.35876495,576,-4989
2.302549,-2.7954285,0.36457765,574,-5052
2.324942,-2.8865113,0.37184066,572,-5115
2.3024604,-2.9237013,0.37208253,570,-5177
2.2703881,-2.948811,0.37082702,569,-5240
2.217143,-2.945751,0.3659999,566,-5303
1.9371355,-2.6332731,0.3234073,564,-5366
1.8937409,-2.634225,0.3197522,562,-5428
1.8333288,-2.6101267,0.3131839,560,-5491
1.813117,-2.6424873,0.31347045,558,-5554
1.7897677,-2.6705065,0.31326112,556,-5617
1.9240052,-2.9398713,0.34106386,554,-5679
1.891687,-2.960878,0.33977112,552,-5742
1.8530769,-2.9678195,0.33693284,550,-5801
1.8102155,-2.9709847,0.33362916,547,-5864
1.8056595,-3.0377808,0.33757934,545,-5927
1.7623068,-3.0402727,0.33427703,543,-5990
0.3139041,0.5423099,0.06531098,595,5993
0.35026428,0.59012604,0.07182587,597,5930
0.335672,0.5524643,0.06793976,599,5871
0.34170228,0.54871523,0.06821747,602,5808
0.34767303,0.5449066,0.06849518,604,5746
0.36722487,0.5618477,0.0713974,607,5683
0.3871704,0.57842714,0.07431946,609,5620
0.38223022,0.5577295,0.07246582,611,5557
0.4082753,0.58196306,0.07647934,614,5494
0.3972281,0.55319685,0.07354218,616,5431
0.42679596,0.5808319,0.07812424,618,5369
0.44208497,0.58801633,0.08003418,620,5306
0.46362716,0.6028157,0.08301819,623,5243
0.47633362,0.60546875,0.08441086,625,5180
0.48885223,0.60817856,0.085811466,627,5120
0.511268,0.621936,0.08884094,629,5057
0.5116455,0.608667,0.08803711,631,4994
0.52152544,0.60674715,0.08888214,633,4931
0.51173216,0.58228636,0.08640747,636,4868
0.52140886,0.5802934,0.087224886,637,4805
0.5310947,0.5781552,0.08806977,640,4742
0.5374112,0.57227266,0.08833496,641,4679
0.5436554,0.56629366,0.08860016,643,4616
0.56697816,0.5782202,0.091727294,646,4556
0.5873642,0.58596265,0.094233096,647,4493
0.575983,0.562066,0.091683656,649,4429
0.60369873,0.5762439,0.09536133,651,4366
0.6172409,0.57633364,0.09675598,653,4303
0.62354434,0.56945956,0.09701538,655,4240
0.6408835,0.57246065,0.098991394,657,4177
0.6544075,0.5720825,0.100429535,659,4115
0.660656,0.56481934,0.10069656,660,4052
0.6744452,0.5638472,0.102117464,662,3989
0.65753174,0.53748,0.098890685,664,3926
0.6517639,0.52087283,0.09738647,665,3863
0.6809354,0.5319617,0.10113007,667,3799
0.68659055,0.52460724,0.10139557,669,3738
0.64059997,0.47833726,0.09404114,670,3674
0.6417969,0.46831053,0.093652345,672,3611
0.6388373,0.45541686,0.09269867,673,3548
0.85161376,0.5930107,0.12287552,675,3485
0.87434787,0.59496737,0.12555222,677,3423
0.8932544,0.59349245,0.12758423,678,3360
0.9330371,0.60518557,0.132583,679,3296
0.9480234,0.60017455,0.13400818,681,3233
0.9503517,0.5870476,0.13368988,682,3170
0.95234865,0.5741504,0.13340332,684,3108
0.8772934,0.51578444,0.122306824,685,3045
0.8699722,0.49868134,0.120732725,686,2982
0.8926373,0.4988748,0.12337494,687,2919
0.9242004,0.5032477,0.12719482,689,2856
0.9691344,0.51395583,0.13283066,690,2793
0.9747322,0.50323224,0.13303299,691,2730
0.9845288,0.49483886,0.13390595,692,2668
1.0211284,0.49919036,0.13833787,693,2605
1.0533692,0.5008308,0.14221343,695,2542
1.2435077,0.5745648,0.16727783,696,2479
1.2542686,0.5628253,0.1681375,697,2416
1.2784694,0.55706054,0.17082275,698,2354
1.3119425,0.55454725,0.17473297,699,2291
1.33163,0.545874,0.17682496,700,2229
1.3375595,0.5311829,0.17704621,701,2165
1.3432236,0.51653594,0.1773117,702,2103
1.483679,0.5518832,0.19528626,703,2040
1.5969672,0.5742966,0.20967956,704,1977
1.6031772,0.556658,0.20988831,705,1914
1.6279465,0.5454294,0.21260712,705,1852
1.6431977,0.53063416,0.21410157,706,1789
1.6583557,0.5155792,0.21559906,707,1727
1.7447284,0.5214697,0.22629501,708,1664
1.812329,0.5201111,0.23454285,709,1601
1.8417565,0.50680465,0.23792267,709,1538
1.8759481,0.49423888,0.2418692,710,1475
2.0400343,0.5136316,0.2624768,711,1413
2.354293,0.5653223,0.3023938,711,1350
1.0640472,0.24327698,0.13645935,712,1287
1.0617838,0.23050873,0.13593933,713,1224
1.0545373,0.21684769,0.13479722,713,1161
1.0519519,0.2043457,0.13430786,714,1099
1.0541272,0.19284302,0.13440675,714,1036
1.0463586,0.17959595,0.13322754,715,973
1.0482526,0.1681018,0.1333255,715,911
1.0500485,0.15660767,0.13339081,716,848
1.0369381,0.14304703,0.13158524,716,785
1.0286081,0.13040176,0.13040176,716,722
1.0250195,0.11857422,0.12984131,717,659
1.0311912,0.10782303,0.13052933,717,596
1.0471252,0.097919315,0.13246766,717,534
1.043184,0.08599564,0.131875,718,471
1.0638459,0.07597961,0.1344078,718,408
1.0596814,0.06400146,0.1338153,718,345
1.0702112,0.05286621,0.13509887,718,282
1.05091,0.040371094,0.1326294,718,219
1.0165542,0.027870942,0.12825012,718,157
1.0366446,0.017061615,0.13078445,718,94
1.0417328,0.005703735,0.13141021,718,31
1.0466934,-0.005730896,0.13203599,718,-31
1.0515246,-0.017306518,0.13266174,718,-94
1.0611835,-0.029094543,0.13388062,718,-157
1.0707386,-0.04113281,0.13513184,718,-219
1.0553471,-0.05213196,0.1332225,718,-282
1.0646331,-0.06430054,0.13444062,718,-345
1.0440533,-0.07456604,0.1319072,718,-408
1.043184,-0.08599564,0.131875,718,-471
1.0174897,-0.09514801,0.12871857,717,-534
1.0213234,-0.10679123,0.12928024,717,-596
1.0200915,-0.11800415,0.12921707,717,-659
1.0433728,-0.13227355,0.13227355,716,-722
1.0467668,-0.14440292,0.13283248,716,-785
1.0353283,-0.15441222,0.13152084,716,-848
1.0139639,-0.16260315,0.12896438,715,-911
1.0170215,-0.17456055,0.1294922,715,-973
1.0248458,-0.18748626,0.13067321,714,-1036
1.0276011,-0.19961548,0.13119888,714,-1099
1.0399585,-0.2138498,0.13293366,713,-1161
1.0617838,-0.23050873,0.13593933,713,-1224
1.0592107,-0.24217117,0.13583907,712,-1287
1.350824,-0.32436523,0.17350464,711,-1350
2.2324903,-0.5620874,0.28723878,711,-1413
2.2405825,-0.5903058,0.28888214,710,-1475
2.248378,-0.6186966,0.29045105,709,-1538
2.260642,-0.64877015,0.29256135,709,-1601
2.2581635,-0.67492676,0.29288864,708,-1664
2.260102,-0.7026608,0.29383072,707,-1727
2.2759233,-0.7349588,0.29654297,706,-1789
2.253718,-0.7550886,0.29433182,705,-1852
2.2688239,-0.78778505,0.29703492,705,-1914
2.2880523,-0.8228226,0.30041808,704,-1977
2.2743545,-0.8459903,0.2993573,703,-2040
2.2742164,-0.8745488,0.30020705,702,-2103
2.2600143,-0.8975159,0.29914704,701,-2165
2.2545872,-0.9242212,0.29938293,700,-2229
2.2581866,-0.9545169,0.30075988,699,-2291
2.252108,-0.9812988,0.30091554,698,-2354
2.273079,-1.0199939,0.3047113,697,-2416
2.2842696,-1.0554506,0.3072821,696,-2479
2.286035,-1.0869095,0.30863342,695,-2542
2.2696695,-1.1095542,0.3074846,693,-2605
2.2661903,-1.139021,0.30822495,692,-2668
2.3111298,-1.1931843,0.31542665,691,-2730
2.3110127,-1.225587,0.31675002,690,-2793
2.3017821,-1.2533716,0.31678712,689,-2856
2.4829185,-1.3876469,0.34317398,687,-2919
2.4505653,-1.4047014,0.34008378,686,-2982
2.435024,-1.4316163,0.33947602,685,-3045
2.4021294,-1.4481919,0.33648604,684,-3108
2.3653197,-1.4610962,0.33273926,682,-3170
2.3490844,-1.4871582,0.33205566,681,-3233
2.357585,-1.5291742,0.33500886,679,-3296
2.4192307,-1.6073754,0.3455406,678,-3360
2.438322,-1.6592047,0.35013154,677,-3423
2.4163013,-1.6825615,0.34863722,675,-3485
2.377445,-1.6948426,0.34497985,673,-3548
2.3586035,-1.7210412,0.34417236,672,-3611
2.3952868,-1.7885654,0.3516321,670,-3674
2.4109588,-1.8421553,0.35604995,669,-3738
2.3832738,-1.8618659,0.35395524,667,-3799
2.3626442,-1.8881639,0.35302597,665,-3863
2.3571167,-1.9267558,0.35450286,664,-3926
2.3434112,-1.95913,0.35481492,662,-3989
2.408563,-2.05917,0.3671109,660,-4052
2.8606956,-2.5008178,0.43902054,659,-4115
2.430171,-2.1707177,0.3753662,657,-4177
2.424487,-2.2141926,0.37721863,655,-4240
2.4290245,-2.2680423,0.38076323,653,-4303
2.447136,-2.3358457,0.38655394,651,-4366
2.4354835,-2.3766372,0.38767472,649,-4429
2.426834,-2.4210434,0.3893463,647,-4493
2.4279187,-2.4760597,0.3927954,646,-4556
2.4223633,-2.5232325,0.3947754,643,-4616
2.394541,-2.549873,0.39359376,641,-4679
2.3596737,-2.5687656,0.3912973,640,-4742
2.331395,-2.5946877,0.3900119,637,-4805
2.2699914,-2.5829628,0.38329467,636,-4868
2.2836983,-2.6568742,0.3892044,633,-4931
2.2640314,-2.6933515,0.38956422,631,-4994
2.300706,-2.7987123,0.39978424,629,-5057
2.3197129,-2.885943,0.40719453,627,-5120
2.30484,-2.9296875,0.40843964,625,-5180
2.2726822,-2.954979,0.4069519,623,-5243
2.2402954,-2.9798126,0.4055786,620,-5306
1.9338272,-2.6317694,0.3539836,618,-5369
1.8846588,-2.6246567,0.34892273,616,-5431
1.8301011,-2.6086595,0.34282,614,-5494
1.812783,-2.6451142,0.34367982,611,-5557
1.7809839,-2.6607647,0.3418695,609,-5620
1.91773,-2.9340935,0.3728531,607,-5683
1.8827832,-2.9508789,0.37092772,604,-5746
1.8425637,-2.9588413,0.3678496,602,-5808
1.8255392,-3.0045557,0.36948776,599,-5871
1.797008,-3.0276031,0.36849794,597,-5930
1.7613509,-3.042961,0.36646712,595,-5993
0.36006624,0.6239319,0.08166428,646,6001
0.35422975,0.59855044,0.0791687,649,5938
0.34015137,0.5606012,0.0749469,652,5875
0.33840454,0.5441597,0.07353882,654,5812
0.34966782,0.5487584,0.0749588,657,5749
0.3665039,0.5614975,0.07755661,659,5686
0.3809024,0.5698059,0.07957489,662,5623
0.38430908,0.5614542,0.079311825,664,5560
0.39613387,0.56532377,0.0807666,667,5498
0.38491988,0.5367001,0.07756439,669,5435
0.42864776,0.5846817,0.08548004,672,5375
