2.3119931,-0.9799936,1.3896308,2895,-2297
2.301045,-1.0080209,1.3877914,2891,-2365
2.289834,-1.0357856,1.3858646,2887,-2433
2.2624831,-1.0559647,1.3742065,2882,-2501
2.2666237,-1.0908768,1.3817481,2877,-2570
2.2586403,-1.1200638,1.3818741,2872,-2637
2.2464447,-1.1471748,1.3795929,2867,-2705
2.24114,-1.1787225,1.3824545,2863,-2774
2.2245116,-1.2034863,1.3775097,2857,-2841
2.2109766,-1.2305566,1.3753124,2852,-2909
2.2086213,-1.2640004,1.3802669,2847,-2978
2.1838183,-1.2837305,1.3702148,2840,-3044
2.1732588,-1.3124602,1.3702165,2835,-3112
2.162561,-1.3411936,1.3700336,2829,-3180
2.1551757,-1.3721192,1.3721192,2823,-3248
2.140042,-1.398227,1.3693756,2817,-3315
2.1386719,-1.434425,1.3765026,2812,-3385
2.1339836,-1.4677687,1.380618,2805,-3452
2.1252568,-1.4986534,1.3822663,2799,-3519
2.1018283,-1.5190918,1.3744377,2792,-3585
2.0775285,-1.5397133,1.3669876,2786,-3654
2.0645378,-1.5673819,1.3660159,2778,-3720
2.0574017,-1.6009303,1.3701332,2772,-3788
2.046352,-1.6317068,1.3718097,2766,-3856
2.0256042,-1.6534332,1.3658874,2758,-3922
2.0105507,-1.6812154,1.3650463,2751,-3990
1.9952539,-1.7087207,1.364104,2744,-4057
1.9829608,-1.7390561,1.3654495,2737,-4125
1.9472159,-1.7485938,1.3505406,2729,-4192
1.9279828,-1.7724104,1.3470355,2721,-4259
1.9214408,-1.8082446,1.3526546,2714,-4326
1.9080384,-1.8379486,1.3534943,2706,-4392
1.897493,-1.8706661,1.3565774,2698,-4459
1.8739146,-1.8906761,1.350483,2689,-4525
1.8472092,-1.9071305,1.3420547,2681,-4591
1.8418579,-1.9459534,1.3493958,2673,-4657
1.8177661,-1.9651031,1.3431251,2664,-4723
1.7953731,-1.9880446,1.3394692,2656,-4791
1.7799087,-2.0166917,1.3397231,2647,-4856
1.7642093,-2.0451174,1.3399489,2638,-4921
1.7496845,-2.0776694,1.3427316,2630,-4989
1.7303427,-2.1024933,1.3405015,2621,-5054
1.7163696,-2.1340134,1.3425659,2611,-5119
1.6840323,-2.145099,1.3318878,2602,-5186
1.669458,-2.176271,1.3338165,2593,-5250
1.647675,-2.2010021,1.3318077,2584,-5318
1.6282812,-2.2291589,1.3318645,2575,-5385
1.6021857,-2.2452264,1.3248358,2565,-5448
1.58995,-2.2840939,1.3312347,2556,-5515
1.5609604,-2.2960212,1.3219459,2546,-5578
1.5378381,-2.3195875,1.3194897,2536,-5645
1.5242624,-2.3581247,1.3255568,2527,-5712
1.4930958,-2.3698928,1.316565,2517,-5778
1.4685382,-2.3880274,1.3113703,2506,-5841
1.4419972,-2.4068234,1.3065532,2497,-5907
1.4173645,-2.429254,1.3038391,2487,-5973
1.4015198,-2.4671555,1.3093948,2477,-6040
1.3805536,-2.4971087,1.3106971,2467,-6106
1.3525237,-2.510162,1.3030609,2456,-6168
1.3350537,-2.5478272,1.308341,2445,-6234
1.3067017,-2.5651855,1.3031335,2435,-6300
1.2861493,-2.598501,1.3061408,2425,-6366
1.3085247,-2.7222042,1.3539807,2414,-6432
0.32013732,0.67308164,0.3418335,2463,6456
0.30364746,0.6198425,0.31812012,2474,6390
0.31053588,0.6157605,0.31939575,2485,6323
0.32366562,0.62365645,0.32700044,2495,6257
0.3305954,0.6193283,0.3282776,2506,6190
0.33312333,0.6069946,0.32530242,2516,6124
0.34431306,0.6104355,0.33080825,2526,6057
0.34157944,0.59046584,0.3235846,2537,5995
0.3642853,0.6131131,0.33983886,2547,5928
0.38987306,0.6391162,0.35836303,2557,5861
0.394574,0.63018036,0.35748824,2567,5794
0.42054185,0.655587,0.3762729,2578,5732
0.43027404,0.6538541,0.3797754,2588,5665
0.43204713,0.641037,0.37685364,2598,5602
0.4315256,0.6243118,0.3715184,2608,5534
0.43327346,0.61139387,0.36834487,2617,5467
0.44230226,0.60962033,0.37190917,2627,5403
0.44644776,0.6002837,0.3708931,2637,5336
0.48256317,0.63392943,0.39670837,2647,5272
0.5089081,0.65236664,0.41357955,2655,5204
0.5130078,0.64252317,0.4127478,2665,5139
0.5145688,0.6289853,0.40948334,2674,5071
0.5326895,0.63628143,0.41987365,2683,5006
0.53074354,0.6195126,0.41444182,2693,4941
0.5465396,0.6227152,0.4223996,2701,4872
0.5442586,0.6059976,0.4168991,2710,4807
0.57481277,0.6254073,0.4364357,2719,4741
0.6028281,0.6409259,0.45379028,2728,4675
0.6127655,0.6366324,0.4574182,2736,4609
0.6320828,0.64162326,0.46797547,2745,4542
0.6421692,0.6368774,0.47158813,2753,4476
0.64268523,0.6227121,0.46825927,2762,4409
0.6558966,0.6207843,0.4741406,2770,4342
0.68860537,0.6366534,0.49402833,2777,4275
0.71524596,0.6458569,0.50930756,2785,4208
0.74552536,0.6573601,0.5269661,2793,4140
0.7560461,0.6509363,0.5306186,2800,4072
0.77335024,0.6500377,0.53892016,2807,4004
0.7801291,0.6406381,0.54035276,2815,3939
0.78722245,0.6308891,0.5415758,2822,3870
0.8077281,0.6321675,0.55242217,2830,3804
0.83574873,0.6380894,0.56781465,2836,3736
0.8742212,0.6515222,0.59063476,2844,3669
0.9064064,0.65866697,0.6084732,2850,3600
0.9277382,0.65773576,0.6194406,2857,3533
0.94564027,0.6538806,0.62797487,2864,3466
0.9671805,0.6520929,0.63890165,2871,3398
1.0002141,0.65679795,0.65679795,2876,3329
1.0478827,0.67052186,0.68464905,2882,3261
1.0477322,0.65302,0.6811185,2888,3193
1.054531,0.64036924,0.6826245,2895,3126
1.0841309,0.6407666,0.6983789,2901,3058
1.0873734,0.6252287,0.6970926,2906,2989
1.1819413,0.6608597,0.754187,2911,2921
1.223411,0.6653459,0.777543,2917,2853
1.2655346,0.6686023,0.8006311,2922,2784
1.2998016,0.66717833,0.819149,2927,2717
1.3654251,0.6805496,0.8572693,2933,2649
1.4041187,0.6790616,0.8782843,2938,2580
1.4626919,0.6860013,0.911536,2943,2512
1.5057709,0.684378,0.9349823,2947,2444
1.5570554,0.6852762,0.96336013,2952,2375
1.6205314,0.69009936,0.99908984,2956,2306
1.6723535,0.68853027,1.0274316,2960,2237
1.7764893,0.7068359,1.0883179,2964,2169
1.8126636,0.69598204,1.1067915,2968,2100
1.8811753,0.6967081,1.1454126,2972,2032
1.9581435,0.6986635,1.1889485,2976,1963
1.9985013,0.6861813,1.2101433,2980,1894
1.8864126,0.62246794,1.1392694,2983,1826
1.9014587,0.6021637,1.1452973,2986,1757
1.8994812,0.576763,1.1417154,2990,1689
2.2220938,0.6454999,1.3321481,2992,1619
2.2455523,0.62324464,1.3435223,2996,1551
2.3987205,0.63493747,1.4322377,2999,1482
2.4601164,0.6196564,1.4659836,3002,1413
2.3488686,0.5616101,1.3969584,3004,1344
2.3209,0.5256958,1.378273,3007,1276
2.3266907,0.49758148,1.3789444,3009,1207
2.3275704,0.4686136,1.3775263,3012,1138
2.34101,0.4421553,1.3834693,3014,1069
2.3414612,0.41307068,1.3817978,3016,1000
2.3416438,0.3840889,1.3799556,3017,931
2.3415594,0.35512635,1.3779438,3019,862
2.3408756,0.3263504,1.3762639,3021,793
2.3442142,0.29813904,1.3770151,3023,724
2.3473024,0.2698442,1.3775159,3024,655
2.3544366,0.24190734,1.3804523,3025,586
2.3570287,0.21347718,1.3807031,3025,517
2.3548143,0.18479279,1.3787678,3027,448
2.3436425,0.15555663,1.3716211,3028,379
2.3452196,0.12733398,1.3719531,3029,310
2.3464649,0.09902832,1.3721192,3029,241
2.3518593,0.07085266,1.3745582,3029,172
2.3566744,0.042572938,1.3774136,3030,103
2.361241,0.014189148,1.3801033,3030,34
2.348291,-0.014111328,1.3725342,3030,-34
2.330777,-0.0421051,1.3622773,3030,-103
2.3302827,-0.070202634,1.3619477,3029,-172
2.3335247,-0.09848221,1.3645523,3029,-241
2.3279755,-0.1263977,1.3618653,3029,-310
2.3221018,-0.1541269,1.3590143,3028,-379
2.3462043,-0.18411712,1.3737266,3027,-448
2.3570287,-0.21347718,1.3807031,3025,-517
2.3587332,-0.24234879,1.3829713,3025,-586
2.3344288,-0.26836425,1.3699609,3024,-655
2.3313575,-0.2965039,1.3694628,3023,-724
2.319478,-0.3233673,1.3636838,3021,-793
2.311649,-0.35059005,1.3603423,3019,-862
2.3203173,-0.38059083,1.3673877,3017,-931
2.337204,-0.41231963,1.3792855,3016,-1000
2.3452587,-0.44295776,1.3859802,3014,-1069
2.3106117,-0.4651993,1.3674896,3012,-1138
2.305539,-0.49305803,1.3664086,3009,-1207
2.2998009,-0.52091676,1.3657433,3007,-1276
2.294146,-0.548526,1.3644127,3004,-1344
2.283794,-0.5752441,1.360913,3002,-1413
2.268947,-0.60058653,1.354752,2999,-1482
2.2831173,-0.6336706,1.3659977,2996,-1551
2.280351,-0.6624231,1.3670734,2992,-1619
2.2685943,-0.6888414,1.3635771,2990,-1689
2.2610824,-0.71605116,1.3619078,2986,-1757
2.2612238,-0.7461461,1.3656307,2983,-1826
2.2570343,-0.7749481,1.3666916,2980,-1894
2.2361262,-0.79784745,1.3577346,2976,-1963
2.227279,-0.8248903,1.3561487,2972,-2032
2.2465675,-0.8625818,1.3717282,2968,-2100
2.248874,-0.89479005,1.3777115,2964,-2169
2.2150643,-0.91197157,1.360853,2960,-2237
2.2047231,-0.9388759,1.3592556,2956,-2306
2.1981957,-0.9674487,1.3600378,2952,-2375
2.1833677,-0.9923482,1.3557243,2947,-2444
2.1644688,-1.015134,1.3488766,2943,-2512
2.1610878,-1.0451479,1.3517728,2938,-2580
2.180779,-1.0869349,1.3691815,2933,-2649
2.1766827,-1.1172748,1.371769,2927,-2717
2.1452355,-1.1333624,1.3571674,2922,-2784
2.1323402,-1.1596625,1.355216,2917,-2853
2.131307,-1.1916792,1.3599695,2911,-2921
2.1254928,-1.222137,1.3626095,2906,-2989
2.1117966,-1.2481599,1.3603839,2901,-3058
2.0791461,-1.262572,1.3458838,2895,-3126
2.0917492,-1.3037244,1.3598217,2888,-3193
2.0920756,-1.3386827,1.3668873,2882,-3261
2.0663764,-1.3569013,1.3569013,2876,-3329
2.0579855,-1.387536,1.3594675,2871,-3398
2.0500903,-1.4175732,1.3614111,2864,-3466
2.0345764,-1.4424475,1.3584644,2857,-3533
2.0225303,-1.4697315,1.3577304,2850,-3600
1.9881482,-1.4816877,1.3432177,2844,-3669
2.0036988,-1.5298128,1.3613297,2836,-3736
2.0002537,-1.5654963,1.3680154,2830,-3804
1.9766502,-1.5841103,1.3598518,2822,-3870
1.9452127,-1.597399,1.3473425,2815,-3939
1.9384412,-1.6293521,1.3508304,2807,-4004
1.9269141,-1.6590234,1.352373,2800,-4072
1.8986046,-1.674077,1.342007,2793,-4140
1.8635767,-1.6827832,1.3270031,2785,-4208
1.877424,-1.7357816,1.3469262,2777,-4275
1.8744496,-1.7741041,1.3550196,2770,-4342
1.8516971,-1.7941507,1.349143,2762,-4409
1.828923,-1.813852,1.3431015,2753,-4476
1.8059509,-1.8332093,1.3370727,2745,-4542
1.7890289,-1.8587106,1.3354774,2736,-4609
1.7719492,-1.8839337,1.3338684,2728,-4675
1.7575427,-1.91224,1.3344421,2719,-4741
1.7517394,-1.9504514,1.3418229,2710,-4807
1.7365855,-1.9786272,1.3421407,2701,-4872
1.7024398,-1.9871799,1.3293844,2693,-4941
1.692578,-2.021733,1.3341147,2683,-5006
1.6709349,-2.0424743,1.3296959,2674,-5071
1.656123,-2.0742326,1.3324575,2665,-5139
1.6340076,-2.094626,1.3279257,2655,-5204
1.6184844,-2.1261566,1.3305331,2647,-5272
1.6173706,-2.1746802,1.3436546,2637,-5336
1.5901818,-2.1917303,1.337102,2627,-5403
1.5488877,-2.1856415,1.3167778,2617,-5467
1.5345969,-2.2201858,1.3211986,2608,-5534
1.512165,-2.2436295,1.3189877,2598,-5602
1.4886492,-2.2621849,1.3139355,2588,-5665
1.4633883,-2.2812912,1.3093426,2578,-5732
1.4395971,-2.2992034,1.3042904,2567,-5794
1.4044824,-2.3023584,1.2909704,2557,-5861
1.3833618,-2.3282776,1.2905273,2547,-5928
1.3731041,-2.3735945,1.3007672,2537,-5995
1.352817,-2.3984208,1.2997563,2526,-6057
1.3281387,-2.420044,1.2969574,2516,-6124
1.3053186,-2.4453478,1.296167,2506,-6190
1.2779572,-2.4624372,1.2911242,2495,-6257
1.2564446,-2.4913993,1.292292,2485,-6323
1.2345667,-2.5201492,1.2934095,2474,-6390
1.2161314,-2.5568895,1.2985504,2463,-6456
0.33403656,0.70840883,0.3671921,2511,6475
0.30240005,0.622473,0.3260495,2522,6408
0.31944275,0.6385721,0.3380548,2533,6342
0.32602447,0.6344495,0.33952546,2545,6280
0.32467926,0.6140872,0.33222228,2556,6213
0.34230515,0.6295125,0.34431884,2566,6146
0.3449707,0.6170663,0.34128144,2576,6079
0.34462953,0.60095155,0.33612305,2588,6016
0.37188354,0.63122207,0.3570848,2598,5949
0.37659758,0.62243044,0.3561795,2608,5882
0.4024582,0.6479279,0.37511748,2618,5815
0.41880432,0.65796936,0.3854306,2629,5752
0.43103027,0.65994626,0.39123046,2639,5685
0.43292907,0.64708376,0.38824493,2650,5621
0.43003234,0.6266571,0.38061675,2660,5554
0.43402696,0.6176071,0.37977037,2670,5490
0.42789245,0.5938043,0.36973572,2680,5422
0.447359,0.60636383,0.38237488,2690,5358
0.49447754,0.6538379,0.41760498,2699,5290
0.50138426,0.647605,0.41903687,2709,5225
0.51421326,0.64805967,0.42486876,2718,5156
0.5238545,0.6450667,0.42860824,2728,5092
0.52789307,0.635061,0.4277069,2738,5026
0.5379217,0.63159865,0.43123338,2746,4957
0.5650439,0.6482257,0.4487671,2755,4892
0.56315506,0.63123614,0.44319716,2765,4826
0.5878197,0.643791,0.45853242,2774,4760
0.6007713,0.6428876,0.46455398,2783,4693
0.613802,0.6417119,0.47060302,2792,4627
0.6330864,0.6466309,0.4813446,2800,4560
0.6400932,0.6386856,0.48268968,2809,4493
0.6438812,0.6275702,0.48164245,2817,4426
0.65069824,0.619508,0.4829187,2825,4359
0.6864583,0.6382915,0.505524,2833,4291
0.7227466,0.6562848,0.52823913,2841,4224
0.73324996,0.65012175,0.5319116,2849,4156
0.7603166,0.65814435,0.547551,2856,4088
0.77055055,0.65168303,0.55141604,2865,4022
0.77774507,0.64199674,0.5526794,2872,3953
0.7845184,0.6324509,0.55411834,2880,3887
0.8121863,0.63883054,0.569762,2887,3818
0.82936674,0.6368495,0.57842696,2894,3751
0.8539777,0.6395245,0.5917194,2901,3682
0.89606935,0.654805,0.61740416,2908,3615
0.92797256,0.6615006,0.6358131,2915,3548
0.9386841,0.65256137,0.63964844,2922,3480
0.9637683,0.6531999,0.6531999,2929,3412
0.99626863,0.65811676,0.6717047,2936,3344
1.0473633,0.6741092,0.7024753,2942,3276
1.0547385,0.6611481,0.70378447,2948,3208
1.0470868,0.63903534,0.6952322,2954,3139
1.0578386,0.6283035,0.6988635,2959,3070
1.0835595,0.6260449,0.71239746,2965,3001
1.1734741,0.65967715,0.7683304,2971,2934
1.2112298,0.661756,0.7893228,2976,2865
1.256576,0.66735107,0.81564575,2982,2797
1.2906517,0.6659004,0.8344841,2988,2729
1.3520448,0.67727387,0.8707959,2993,2660
1.3905002,0.67585737,0.8921187,2998,2592
1.4448409,0.68095183,0.9235135,3003,2523
1.4994434,0.68478376,0.9548836,3008,2454
1.5544057,0.6874022,0.986218,3012,2385
1.6135675,0.6903784,1.020142,3016,2316
1.6607373,0.6873242,1.0468554,3021,2248
1.7525743,0.7005496,1.1009018,3025,2178
1.8244835,0.70407987,1.1427301,3029,2110
1.8723891,0.6969444,1.1694396,3034,2041
1.9529616,0.70033294,1.2162982,3038,1972
1.9605212,0.67647964,1.2176193,3041,1903
1.8983105,0.6294897,1.1757885,3045,1834
1.9011428,0.6049605,1.1743143,3048,1765
1.8909516,0.5769017,1.1655698,3052,1696
2.2280135,0.65022796,1.3697062,3054,1626
2.243215,0.6254817,1.3761094,3057,1558
2.3788238,0.63252014,1.4562714,3060,1489
2.3981438,0.60679626,1.4651375,3063,1419
2.2579377,0.5425873,1.3773559,3067,1351
2.2680626,0.51602036,1.380732,3069,1281
2.269226,0.48771057,1.3794159,3072,1212
2.2788765,0.4608769,1.3825482,3073,1143
2.2668617,0.43001953,1.3732274,3075,1074
2.2714503,0.40248778,1.3739648,3077,1004
2.271228,0.3743396,1.3725513,3080,935
2.2838073,0.3479892,1.3781652,3081,866
2.2873373,0.3204062,1.3789862,3083,797
2.2863634,0.29211503,1.3770785,3085,728
2.285132,0.263927,1.3750867,3087,658
2.2879126,0.23620117,1.3754956,3088,589
2.2905297,0.20847534,1.375741,3088,520
2.2882156,0.18041229,1.3737457,3090,450
2.2814507,0.15208587,1.3690169,3091,381
2.291481,0.124982454,1.3743988,3091,312
2.292787,0.09722672,1.374562,3092,242
2.285192,0.069129944,1.3693422,3091,173
2.2899683,0.041555785,1.3722372,3092,103
2.2945015,0.013877869,1.3749702,3093,34
2.285924,-0.013825988,1.3698301,3093,-34
2.2771032,-0.04132233,1.3645281,3092,-103
2.2723298,-0.068740845,1.3616349,3091,-173
2.2756448,-0.096499786,1.364285,3092,-242
2.2700653,-0.12381439,1.3615539,3091,-312
2.2557685,-0.15037385,1.3536057,3091,-381
2.2711074,-0.17906341,1.3634747,3090,-450
2.2862563,-0.2080864,1.3731743,3088,-520
2.2836442,-0.2357605,1.3729293,3088,-589
2.2808685,-0.2634346,1.3725212,3087,-658
2.2693326,-0.2899391,1.3668209,3085,-728
2.261828,-0.3168329,1.3636072,3083,-797
2.2668273,-0.3454019,1.3679187,3081,-866
2.2500412,-0.3708476,1.3597476,3080,-935
2.250301,-0.39874023,1.3611718,3077,-1004
2.2541976,-0.4276172,1.3655558,3075,-1074
2.245178,-0.45406175,1.3621039,3073,-1143
2.2356079,-0.48048523,1.3589801,3072,-1212
2.2345238,-0.5083897,1.3603146,3069,-1281
2.2244866,-0.53454894,1.3569506,3067,-1351
2.210463,-0.5593079,1.3504746,3063,-1419
2.204155,-0.5860764,1.3493423,3060,-1489
2.2058973,-0.6150763,1.3532165,3057,-1558
2.2073455,-0.64419615,1.3570001,3054,-1626
2.2081702,-0.6736804,1.361101,3052,-1696
2.2049973,-0.7016496,1.3620017,3048,-1765
2.1887848,-0.72581255,1.3557045,3045,-1834
2.1887732,-0.7552382,1.3593795,3041,-1903
2.1843936,-0.7833246,1.3604333,3038,-1972
2.1635597,-0.80532455,1.3512962,3034,-2041
2.1708534,-0.83774626,1.3596722,3029,-2110
2.1736734,-0.8688739,1.3654206,3025,-2178
2.1677413,-0.89715636,1.3664484,3021,-2248
2.1540728,-0.9216382,1.3618643,3016,-2316
2.1397798,-0.9462712,1.3576181,3012,-2385
2.137002,-0.9759517,1.3608971,3008,-2454
2.118317,-0.9983603,1.3539859,3003,-2523
2.1032777,-1.0223053,1.3494232,2998,-2592
2.1036112,-1.0537528,1.3548486,2993,-2660
2.099717,-1.0833305,1.3575935,2988,-2729
2.0955703,-1.1129299,1.3602386,2982,-2797
2.0796587,-1.1362225,1.3552524,2976,-2865
2.0781848,-1.1682669,1.3606883,2971,-2934
2.061773,-1.1912243,1.3555341,2965,-3001
2.05587,-1.2210846,1.3582153,2959,-3070
2.0236251,-1.2350152,1.3436226,2954,-3139
2.0209675,-1.2668152,1.3485101,2948,-3208
2.0178223,-1.2987208,1.3533702,2942,-3276
2.0107174,-1.3282429,1.3556668,2936,-3344
1.999729,-1.3553287,1.3553287,2929,-3412
1.9884338,-1.3823341,1.3549805,2922,-3480
1.973275,-1.4066391,1.3520164,2915,-3548
1.9614747,-1.4333527,1.3514831,2908,-3615
1.9424492,-1.4546562,1.345919,2901,-3682
1.9606369,-1.505523,1.367411,2894,-3751
1.9581949,-1.5402313,1.3737057,2887,-3818
1.9135427,-1.5426302,1.3515669,2880,-3887
1.9037846,-1.5714965,1.3528632,2872,-3953
1.8861737,-1.5952067,1.3497705,2865,-4022
1.8725702,-1.620932,1.3485534,2856,-4088
1.861074,-1.6500849,1.3500537,2849,-4156
1.8133777,-1.6466244,1.3253567,2841,-4224
1.8176641,-1.6901239,1.3385706,2833,-4291
1.8213172,-1.7340152,1.3516989,2825,-4359
1.7990799,-1.753505,1.3457657,2817,-4426
1.7735267,-1.7696265,1.3374035,2809,-4493
1.760289,-1.7979492,1.3383728,2800,-4560
1.7436863,-1.8229725,1.3368872,2792,-4627
1.7268403,-1.847898,1.3353009,2783,-4693
1.7127335,-1.8758175,1.3360285,2774,-4760
1.6835682,-1.8870986,1.3249507,2765,-4826
1.6747437,-1.9212875,1.3301086,2755,-4892
1.6540375,-1.9420815,1.325985,2746,-4957
1.64328,-1.9768835,1.3314102,2738,-5026
1.6247895,-2.0007415,1.3293731,2728,-5092
1.6062253,-2.0243156,1.3271439,2718,-5156
1.594075,-2.0589614,1.332264,2709,-5225
1.5748035,-2.0823317,1.3299811,2699,-5290
1.5511975,-2.1025398,1.3258679,2690,-5358
1.534151,-2.1290057,1.3256378,2680,-5422
1.5049691,-2.1415253,1.3168368,2670,-5490
1.4848764,-2.16381,1.3142473,2660,-5554
1.4654899,-2.1904156,1.3142314,2650,-5621
1.444931,-2.2123199,1.3115113,2639,-5685
1.4224906,-2.234827,1.309135,2629,-5752
1.399134,-2.2525022,1.3040849,2618,-5815
1.3692344,-2.263034,1.2949983,2608,-5882
1.357489,-2.3041542,1.3034691,2598,-5949
1.3248096,-2.3101513,1.2921094,2588,-6016
1.3161621,-2.354285,1.3020865,2576,-6079
1.2895646,-2.3715596,1.2971509,2566,-6146
1.2692008,-2.4005227,1.2986871,2556,-6213
1.2442579,-2.4213483,1.2957839,2545,-6280
1.2231827,-2.4451652,1.2944504,2533,-6342
1.2273885,-2.526508,1.3233774,2522,-6408
1.1720243,-2.485573,1.2883561,2511,-6475
0.33733064,0.7232758,0.3824611,2560,6499
0.31420746,0.6536694,0.3493132,2571,6432
0.315513,0.6372461,0.34417847,2582,6365
0.31039673,0.60889524,0.33243042,2593,6298
0.32920685,0.62873566,0.3469992,2605,6236
0.33414245,0.6203005,0.34614456,2616,6168
0.3410898,0.6157727,0.34743822,2626,6101
0.3502057,0.6150418,0.35095307,2637,6034
0.3611328,0.6182617,0.35683593,2649,5971
0.3818689,0.6364313,0.37155974,2659,5903
0.39550063,0.6429561,0.37974456,2670,5840
0.41225296,0.6527625,0.39010528,2680,5772
0.42923903,0.6622375,0.40052947,2690,5705
0.41887817,0.6308075,0.38614196,2701,5641
0.42345414,0.6215784,0.3851599,2711,5573
0.42997834,0.6162146,0.3865782,2722,5509
0.42396364,0.59247804,0.37634218,2731,5441
0.44858277,0.6121568,0.39381453,2742,5376
0.47897643,0.63838804,0.41596985,2752,5311
0.49967727,0.64962846,0.4288513,2762,5243
0.51207,0.65025985,0.43494278,2772,5178
0.51619995,0.64034,0.43406433,2782,5112
0.520623,0.6301506,0.43297273,2791,5043
0.533071,0.63031465,0.43905166,2800,4977
0.5600116,0.64692324,0.45690766,2810,4911
0.5640161,0.6365501,0.45596603,2819,4845
0.58566743,0.64572966,0.4691986,2828,4779
0.5776512,0.6221788,0.45870483,2838,4712
0.6116467,0.6435791,0.48148224,2847,4645
0.62167513,0.63895935,0.48522872,2855,4578
0.63790345,0.6404495,0.49378264,2864,4511
0.6448816,0.6323712,0.49510285,2873,4443
0.6517969,0.6241986,0.49642304,2881,4376
0.6746037,0.6309137,0.50979215,2889,4308
0.72028565,0.65777785,0.54011214,2897,4240
0.7402023,0.66057086,0.55135894,2906,4174
0.750769,0.65405273,0.55510986,2913,4106
0.76132995,0.647382,0.5588374,2921,4037
0.78156114,0.6491263,0.570092,2929,3971
0.78877836,0.63924253,0.5713364,2936,3902
0.80581236,0.6375702,0.5801331,2944,3835
0.826355,0.63826907,0.59143066,2952,3768
0.8508606,0.6408745,0.604911,2959,3698
0.8857471,0.65091443,0.6260916,2966,3631
0.9244919,0.6626758,0.64980286,2973,3563
0.92809206,0.64871657,0.64871657,2980,3495
0.96018064,0.6542969,0.6675055,2987,3427
0.99256134,0.6591339,0.6863251,2994,3358
1.0360909,0.67031705,0.71263045,3000,3290
1.0470577,0.65970796,0.7164838,3006,3221
1.0432429,0.6398764,0.7102205,3012,3152
1.0647763,0.63600177,0.7217479,3019,3085
1.0755615,0.62490237,0.7254492,3025,3015
1.1648178,0.65844727,0.78237915,3031,2947
1.2062285,0.66257143,0.8062616,3036,2877
1.2475171,0.6660498,0.83051026,3042,2809
1.2852246,0.66655517,0.8522022,3048,2741
1.3347131,0.67206895,0.88153124,3053,2672
1.3729057,0.6707169,0.9032631,3058,2603
1.4307617,0.6777588,0.937688,3063,2534
1.4889207,0.68338853,0.97214997,3068,2465
1.5514069,0.6894539,1.009198,3072,2396
1.6059906,0.6908989,1.0414718,3078,2327
1.669135,0.69410783,1.078517,3082,2257
1.7402383,0.6992827,1.1211061,3086,2189
1.8160416,0.7041101,1.1658273,3090,2119
1.8637598,0.6968921,1.1929932,3094,2050
1.9478897,0.70162356,1.2432445,3098,1980
1.9753516,0.68498415,1.2579017,3103,1912
1.9015356,0.633631,1.2075622,3106,1842
1.8922217,0.6050635,1.1983032,3109,1773
1.8903396,0.57954437,1.1944776,3113,1704
2.2043417,0.64675003,1.3898611,3117,1635
2.2487009,0.6300128,1.4140713,3119,1565
2.296673,0.6135547,1.4411578,3122,1495
2.2656732,0.5762463,1.419499,3126,1426
2.2262452,0.5374231,1.391853,3128,1357
2.223805,0.50828433,1.3874744,3130,1287
2.2165782,0.47852874,1.3808949,3133,1218
2.2216017,0.4515477,1.3818672,3136,1148
2.2431533,0.42760164,1.3931748,3138,1079
2.247725,0.40025407,1.3939911,3140,1009
2.247842,0.37212798,1.3919559,3142,940
2.2431574,0.34345886,1.3877167,3144,870
2.2386062,0.31491393,1.3828232,3145,800
2.241841,0.2876602,1.3834702,3147,731
2.249069,0.2608168,1.3866477,3148,661
2.2387793,0.23219238,1.3796191,3150,592
2.2328675,0.20418458,1.3746341,3151,522
2.2262964,0.1763031,1.369967,3152,452
2.2283752,0.149198,1.3698871,3152,383
2.2423394,0.122872315,1.3784537,3154,313
2.2435455,0.09553161,1.3786145,3154,243
2.2403316,0.06814179,1.3759183,3154,174
2.2450733,0.040930633,1.3788557,3155,104
2.2453146,0.0136703495,1.3790165,3155,34
2.2367935,-0.013618469,1.3737831,3155,-34
2.2365532,-0.0407753,1.3736229,3155,-104
2.2105174,-0.067234956,1.3576076,3154,-174
2.2180023,-0.09444397,1.3629187,3154,-243
2.2168097,-0.12147339,1.3627597,3154,-313
2.207112,-0.14777435,1.3568157,3152,-383
2.243291,-0.17764893,1.3804249,3152,-452
2.2498474,-0.20573731,1.3850876,3151,-522
2.2514997,-0.23351166,1.3874578,3150,-592
2.2236557,-0.25786972,1.3709793,3148,-661
2.2206917,-0.28494644,1.3704185,3147,-731
2.2090397,-0.3107547,1.3645595,3145,-800
2.1967764,-0.33635727,1.3590233,3144,-870
2.2015383,-0.36446244,1.3632827,3142,-940
2.2141142,-0.39426896,1.3731464,3140,-1009
2.209611,-0.42120758,1.3723422,3138,-1079
2.1839476,-0.44389436,1.3584458,3136,-1148
2.1831834,-0.4713193,1.3600905,3133,-1218
2.1738317,-0.49686217,1.3562951,3130,-1287
2.1639435,-0.5223833,1.3529019,3128,-1357
2.149697,-0.5467493,1.3468373,3126,-1426
2.1520982,-0.5749316,1.3504375,3122,-1495
2.1663308,-0.60693544,1.3622738,3119,-1565
2.1632926,-0.63470626,1.3639792,3117,-1635
2.13993,-0.6560643,1.3521899,3113,-1704
2.1369054,-0.6833044,1.3532562,3109,-1773
2.137196,-0.7121579,1.3572174,3106,-1842
2.1332178,-0.7397267,1.3584306,3103,-1912
2.1213043,-0.7640869,1.3539267,3098,-1980
2.1248467,-0.79451704,1.360115,3094,-2050
2.1360488,-0.8281824,1.3712595,3090,-2119
2.1384623,-0.8593016,1.3776522,3086,-2189
2.1092157,-0.8771149,1.3628765,3082,-2257
2.099231,-0.90309143,1.3613342,3078,-2327
2.0855622,-0.9268355,1.3566687,3072,-2396
2.071202,-0.95064545,1.3523346,3068,-2465
2.0683837,-0.97980344,1.3555707,3063,-2534
2.0612922,-1.00702,1.3561668,3058,-2603
2.0655358,-1.0400605,1.3642141,3053,-2672
2.0578895,-1.0672818,1.364538,3048,-2741
2.0272152,-1.082331,1.3495792,3042,-2809
2.022985,-1.1112092,1.3521942,3036,-2877
2.017765,-1.1406006,1.3552825,3031,-2947
2.005474,-1.1651825,1.3526605,3025,-3015
1.9885718,-1.1877942,1.3479333,3019,-3085
1.9869539,-1.2187046,1.3526814,3012,-3152
1.9952675,-1.2571357,1.3653275,3006,-3221
1.9885674,-1.2865384,1.3677504,3000,-3290
1.9526389,-1.2966962,1.3501886,2994,-3358
1.9454406,-1.3256836,1.3524458,2987,-3427
1.9415259,-1.3570852,1.3570852,2980,-3495
1.9266129,-1.3809961,1.3541694,2973,-3563
1.9150342,-1.4073131,1.3536447,2966,-3631
1.9031494,-1.4334662,1.3530256,2959,-3698
1.8971733,-1.4653593,1.3578262,2952,-3768
1.888196,-1.4939674,1.3593795,2944,-3835
1.8619232,-1.5089417,1.3486481,2936,-3902
1.8482411,-1.5350583,1.3481575,2929,-3971
1.8384955,-1.5633287,1.349507,2921,-4037
1.8176514,-1.5834961,1.3439502,2913,-4106
1.7999634,-1.606322,1.3407495,2906,-4174
1.7764893,-1.6223221,1.3321152,2897,-4240
1.780826,-1.6654925,1.3457547,2889,-4308
1.771875,-1.6968505,1.3494995,2881,-4376
1.7468152,-1.7129278,1.3411038,2873,-4443
1.7310098,-1.7379189,1.3399248,2864,-4511
1.7149658,-1.7626464,1.338562,2855,-4578
1.6926264,-1.7809937,1.3324187,2847,-4645
1.6850655,-1.8149568,1.3380872,2838,-4712
1.6534752,-1.8230449,1.3246567,2828,-4779
1.6394458,-1.850283,1.3253728,2819,-4845
1.628075,-1.8807459,1.3283294,2810,-4911
1.6134661,-1.9077972,1.3288944,2800,-4977
1.6012676,-1.9381388,1.3316836,2791,-5043
1.5819031,-1.9623321,1.3301971,2782,-5112
1.5581168,-1.9785981,1.3234355,2772,-5178
1.5449481,-2.008581,1.325962,2762,-5243
1.5327246,-2.042842,1.3311036,2752,-5311
1.5005225,-2.0476825,1.3173212,2742,-5376
1.4838727,-2.073673,1.3171976,2731,-5441
1.4553113,-2.0856495,1.3084186,2722,-5509
1.4407463,-2.1148376,1.3104553,2711,-5573
1.4192578,-2.1373243,1.3083398,2701,-5641
1.3968457,-2.1550782,1.3034179,2690,-5705
1.3749709,-2.1771326,1.3011026,2680,-5772
1.3667004,-2.2218127,1.3122535,2670,-5840
1.3296399,-2.2160077,1.2937442,2659,-5903
1.3136206,-2.248927,1.2979907,2649,-5971
1.2944312,-2.273319,1.2971936,2637,-6034
1.2665945,-2.2865953,1.2901686,2626,-6101
1.251438,-2.3231635,1.2963885,2616,-6168
1.2188988,-2.3279138,1.2847755,2605,-6236
1.2089136,-2.371487,1.294729,2593,-6298
1.1921599,-2.4078224,1.3004718,2582,-6365
1.1612015,-2.4157348,1.29094,2571,-6432
1.1453995,-2.4558685,1.298639,2560,-6499
0.29902267,0.64836365,0.3496321,2609,6524
0.29859543,0.627961,0.34223175,2620,6456
0.28789642,0.5876001,0.32365236,2631,6389
0.30661622,0.60759646,0.33827513,2642,6322
0.30724883,0.5914438,0.3328946,2654,6254
0.31972045,0.5992468,0.34101197,2666,6191
0.33291322,0.606604,0.34904328,2676,6124
0.3419403,0.6059235,0.35260436,2687,6056
0.36833954,0.6361977,0.37443238,2699,5993
0.37096328,0.6235367,0.3712369,2709,5925
0.38905883,0.63771605,0.38411132,2721,5861
0.41038787,0.65504885,0.39923677,2731,5793
0.41244203,0.64229673,0.3961438,2742,5729
0.4098999,0.6219507,0.38826415,2753,5661
0.42136842,0.62406313,0.394339,2764,5597
0.4132782,0.596607,0.38167235,2773,5528
0.43237656,0.6093294,0.39472702,2784,5464
0.44183502,0.60715026,0.3983078,2794,5395
0.4772737,0.64041567,0.42557204,2805,5330
0.48674226,0.6378165,0.42936736,2815,5265
0.4967047,0.63481474,0.43303895,2824,5195
0.5117157,0.638779,0.4415854,2834,5130
0.5185556,0.63225126,0.44300446,2844,5064
0.5224861,0.62227476,0.44203416,2854,4998
0.55205965,0.6422339,0.46259215,2864,4931
0.5444989,0.6187396,0.45198485,2873,4865
0.58047086,0.6443399,0.4774768,2883,4798
0.56964844,0.61763674,0.46435547,2892,4731
0.6003723,0.6358032,0.48510742,2901,4664
0.6194147,0.6407062,0.4961792,2910,4596
0.62638736,0.6328308,0.49754882,2919,4529
0.639538,0.6309567,0.5037784,2928,4461
0.64328384,0.61979216,0.5026466,2936,4393
0.6786441,0.6384146,0.52605283,2944,4325
0.7012839,0.6447427,0.53991437,2954,4259
0.74074876,0.66485333,0.5659308,2962,4190
0.75138855,0.65824586,0.5697357,2969,4121
0.75500536,0.6460892,0.5687961,2978,4055
0.76886034,0.6420387,0.57503265,2985,3986
0.7857367,0.640665,0.58400023,2994,3919
0.7993305,0.6363098,0.5904321,3002,3852
0.8269638,0.64200014,0.6066617,3009,3782
0.84761447,0.64213896,0.6181531,3016,3714
0.8962051,0.66236115,0.64976346,3024,3646
0.9138345,0.6587526,0.6587526,3031,3578
0.9315491,0.65476316,0.6677344,3038,3510
0.9457498,0.64799345,0.674173,3045,3441
0.9814682,0.6553156,0.69582856,3052,3373
1.0283501,0.6688385,0.7251549,3058,3303
1.0429237,0.6605257,0.7315575,3065,3234
1.053501,0.6499951,0.73568845,3072,3167
1.064391,0.6389786,0.7394777,3078,3097
1.0785507,0.63016844,0.7461049,3084,3029
1.1564453,0.6568863,0.7960022,3090,2959
1.1972235,0.66125715,0.8206209,3096,2891
1.238258,0.6646985,0.8452747,3102,2822
1.279588,0.667202,0.869908,3108,2753
1.3326074,0.6745579,0.90232176,3113,2684
1.3667779,0.67119384,0.92177796,3118,2615
1.4204297,0.67629886,0.95425296,3123,2546
1.4782819,0.68193513,0.9893001,3128,2476
1.5364773,0.68620545,1.0243182,3132,2406
1.5867897,0.68595886,1.0545845,3138,2337
1.6573792,0.6925661,1.0974677,3142,2267
1.7398987,0.7025391,1.1485412,3147,2198
1.8030179,0.7027939,1.1866791,3151,2129
1.8504492,0.69554687,1.2142334,3155,2060
1.9260257,0.6973972,1.2601883,3160,1990
1.9617993,0.6834204,1.2798681,3163,1920
1.9608041,0.6567407,1.2762543,3168,1851
1.8911306,0.6077641,1.2274284,3171,1781
1.8812201,0.5795978,1.2183281,3175,1712
2.1930954,0.64664096,1.4170771,3178,1642
2.2122588,0.6231703,1.4263823,3182,1573
2.288672,0.61474,1.4724811,3185,1503
2.1966715,0.56132907,1.4101263,3187,1433
2.1986575,0.5332765,1.4084616,3190,1363
2.1959171,0.5045375,1.404473,3193,1293
2.1932158,0.47567704,1.3998288,3195,1223
2.1940649,0.44794923,1.39823,3198,1153
2.2071471,0.42271575,1.4044158,3200,1084
2.2113526,0.3957855,1.4056289,3203,1014
2.190556,0.3644397,1.3902758,3204,944
2.2113867,0.34015137,1.4013721,3206,874
2.2148511,0.31308106,1.4021777,3208,804
2.213873,0.28546906,1.4001654,3209,734
2.2127218,0.25787935,1.3979901,3211,664
2.2154508,0.2308313,1.3983914,3212,594
2.2091858,0.20300843,1.393794,3213,525
2.206965,0.17564744,1.3916129,3215,455
2.2048159,0.14830993,1.3888724,3214,384
2.2062497,0.121387936,1.389191,3215,314
2.2029772,0.094284974,1.3870862,3217,245
2.208241,0.06746429,1.3897486,3217,174
2.2171814,0.040617675,1.3953131,3217,104
2.208958,0.013460998,1.3901467,3218,34
2.2004943,-0.013409424,1.3848206,3218,-34
2.191794,-0.040152587,1.3793362,3217,-104
2.1997802,-0.06720581,1.3844239,3217,-174
2.1987488,-0.09410401,1.3844239,3217,-245
2.1977966,-0.12092285,1.3838685,3215,-314
2.1963685,-0.1477417,1.383551,3214,-384
2.1943054,-0.1746399,1.3836304,3215,-455
2.1923218,-0.20145874,1.3831543,3213,-525
2.202815,-0.22951478,1.3904158,3212,-594
2.1958952,-0.25591826,1.387359,3211,-664
2.1970692,-0.2833023,1.3895379,3209,-734
2.1854875,-0.30893037,1.3835883,3208,-804
2.1778808,-0.33499756,1.3801391,3206,-874
2.1654732,-0.36026672,1.3743567,3204,-944
2.157112,-0.38607758,1.3711513,3203,-1014
2.1530097,-0.41234726,1.3699679,3200,-1084
2.1483552,-0.43861693,1.3691002,3198,-1153
2.1476102,-0.46578583,1.3707209,3195,-1223
2.1421564,-0.49218535,1.3700885,3193,-1293
2.1409066,-0.5192692,1.3714664,3190,-1363
2.1431944,-0.54766375,1.3757974,3187,-1433
2.1328125,-0.572876,1.3722045,3185,-1503
2.1222963,-0.5978288,1.3683778,3182,-1573
2.1278732,-0.62741,1.3749335,3178,-1642
2.1290698,-0.6559595,1.3788421,3175,-1712
2.1260033,-0.6832466,1.3798714,3171,-1781
2.114118,-0.70809084,1.3760437,3168,-1851
2.1145623,-0.7366376,1.3795301,3163,-1920
2.1062152,-0.7626422,1.3780854,3160,-1990
2.0977075,-0.7884863,1.3764801,3155,-2060
2.0770447,-0.8096062,1.3670334,3151,-2129
2.083924,-0.8414502,1.3756392,3147,-2198
2.08255,-0.87023145,1.3790033,3142,-2267
2.0687037,-0.8942871,1.3748658,3138,-2337
2.0590355,-0.919585,1.3726904,3132,-2406
2.0486426,-0.9450439,1.3709985,3128,-2476
2.0418677,-0.9721796,1.3717386,3123,-2546
2.023292,-0.99359316,1.3645421,3118,-2615
2.0122755,-1.0186019,1.3625318,3113,-2684
2.0162055,-1.0512886,1.3706859,3108,-2753
2.0121694,-1.080135,1.3735713,3102,-2822
2.0041296,-1.106932,1.373704,3096,-2891
1.9920703,-1.1315396,1.371178,3090,-2959
1.9791962,-1.1563916,1.369141,3084,-3029
1.9630464,-1.1784623,1.3638119,3078,-3097
1.9460504,-1.2006854,1.3589801,3072,-3167
1.9332244,-1.2243891,1.3560578,3065,-3234
1.9268032,-1.2531922,1.3587112,3058,-3303
1.9199524,-1.2819312,1.3611828,3052,-3373
1.9092768,-1.3081672,1.3610184,3045,-3441
1.8983841,-1.334328,1.3607618,3038,-3510
1.8801883,-1.3553646,1.3553646,3031,-3578
1.8861992,-1.3940392,1.3675255,3024,-3646
1.8571715,-1.406963,1.3544086,3016,-3714
1.8247879,-1.4166449,1.3386667,3009,-3782
1.8357505,-1.4613556,1.3559924,3002,-3852
1.8199543,-1.4839334,1.3526844,2994,-3919
1.8206346,-1.5203254,1.3616574,2985,-3986
1.7935498,-1.5348145,1.3512012,2978,-4055
1.786998,-1.5654804,1.3549801,2969,-4121
1.7629173,-1.5822929,1.3468659,2962,-4190
1.7452042,-1.6044967,1.3436226,2954,-4259
1.7156377,-1.613936,1.3298813,2944,-4325
1.7164695,-1.6537869,1.3412083,2936,-4393
1.6981906,-1.6754045,1.3377028,2928,-4461
1.6918598,-1.7092636,1.3438697,2919,-4529
1.6730269,-1.7305348,1.3401703,2910,-4596
1.6570276,-1.7548169,1.3388965,2901,-4664
1.6436731,-1.7821393,1.339859,2892,-4731
1.6212142,-1.7995958,1.3335589,2883,-4798
1.5900526,-1.8068514,1.3198919,2873,-4865
1.587529,-1.8468384,1.330252,2864,-4931
1.5787554,-1.880279,1.33566,2854,-4998
1.5640306,-1.9069514,1.3361586,2844,-5064
1.5516541,-1.9369427,1.3390008,2834,-5130
1.5253992,-1.9495404,1.3298792,2824,-5195
1.5030173,-1.9695212,1.3258487,2815,-5265
1.4792848,-1.9849347,1.3190383,2805,-5330
1.4476595,-1.98931,1.3050438,2794,-5395
1.4378439,-2.0262907,1.3126426,2784,-5464
1.4288337,-2.0626597,1.3195624,2773,-5528
1.4103448,-2.0887759,1.3198758,2764,-5597
1.3858521,-2.1027856,1.3127027,2753,-5661
1.3644158,-2.1248074,1.310499,2742,-5729
1.3420155,-2.142085,1.3055501,2731,-5793
1.320021,-2.1636796,1.3032348,2721,-5861
1.290406,-2.1689897,1.2913578,2709,-5925
1.2635162,-2.1823509,1.2844166,2699,-5993
1.2472054,-2.210067,1.2861018,2687,-6056
1.2328528,-2.2463915,1.2925861,2676,-6124
1.2115723,-2.2708302,1.2922559,2666,-6191
1.1918781,-2.2943256,1.2913629,2654,-6254
1.1639313,-2.306468,1.2841103,2642,-6322
1.1417263,-2.3302772,1.2835253,2631,-6389
1.1153984,-2.3457382,1.2784011,2620,-6456
1.1283875,-2.4466553,1.3193665,2609,-6524
0.3253212,0.7118187,0.39130402,2656,6543
0.2813617,0.59829164,0.33237672,2668,6481
0.29200745,0.6023712,0.3382187,2680,6413
0.30077422,0.60226274,0.34183288,2692,6346
0.30349746,0.59012514,0.33860123,2703,6278
0.32838714,0.621503,0.3605484,2715,6214
0.3184204,0.5857086,0.34357452,2726,6146
0.33320922,0.5970273,0.35416993,2738,6083
0.35763794,0.6231967,0.37392792,2749,6014
0.38269195,0.6488098,0.39379424,2759,5946
0.39636153,0.65519106,0.402301,2771,5882
0.39911133,0.6422676,0.39903304,2782,5814
0.4034958,0.6333496,0.39820403,2793,5749
0.40338287,0.61679614,0.39250198,2803,5681
0.4049469,0.60424805,0.38923645,2815,5617
0.4038382,0.5881201,0.3835684,2826,5552
0.41302153,0.5862787,0.38717973,2836,5483
0.4526758,0.62729,0.4195093,2847,5418
0.48546296,0.65674436,0.44487762,2857,5352
0.48232666,0.6362613,0.43664336,2867,5283
0.4971649,0.64042586,0.4453369,2877,5217
0.5040245,0.63401794,0.44677657,2888,5151
0.51082766,0.6275253,0.44821626,2898,5085
0.51754606,0.620948,0.44965592,2908,5018
0.53559995,0.6275679,0.46079132,2918,4952
0.5538266,0.63381135,0.47198653,2928,4885
0.5723389,0.6396729,0.48321152,2937,4817
0.57340163,0.6258888,0.4797043,2947,4750
0.6010129,0.64071256,0.49834228,2956,4683
0.6170395,0.642408,0.507151,2965,4615
0.6210333,0.6313678,0.5060468,2974,4547
0.62794375,0.623399,0.50741637,2983,4479
0.63479185,0.6153058,0.50872374,2991,4410
0.675779,0.6401512,0.5377296,3001,4344
0.69871217,0.64617616,0.5516113,3009,4276
0.73114747,0.6606281,0.57327026,3018,4209
0.74496615,0.6569122,0.5796326,3026,4140
0.7453418,0.6419806,0.57612306,3035,4073
0.7624452,0.6406993,0.5850078,3043,4004
0.77587265,0.63661164,0.591566,3051,3936
0.79649734,0.6373787,0.6029512,3058,3866
0.8270221,0.6459283,0.6222491,3066,3799
0.8442383,0.6433548,0.6313319,3074,3730
0.88904023,0.6609439,0.6609439,3082,3662
0.9100998,0.65983737,0.6726303,3089,3594
0.9172559,0.64836365,0.6740695,3096,3525
0.945459,0.6514343,0.69089663,3103,3456
0.9774971,0.6561966,0.71032715,3110,3387
1.0204788,0.66731644,0.7375488,3116,3318
1.0455062,0.6661469,0.75212556,3124,3250
1.0564824,0.6552118,0.7560068,3130,3180
1.0634093,0.6421129,0.7575609,3137,3112
1.0742371,0.63086367,0.7613672,3143,3042
1.12164,0.6407588,0.79152834,3149,2973
1.1917969,0.66201174,0.83745116,3156,2905
1.2363923,0.66739196,0.86513215,3162,2835
1.277509,0.669765,0.89017504,3168,2766
1.3378084,0.68083495,0.9283917,3173,2697
1.364296,0.6735443,0.94296205,3178,2627
1.4099853,0.67483884,0.9706494,3183,2557
1.4597653,0.6768518,1.0009935,3188,2487
1.521064,0.6832045,1.0396485,3194,2418
1.5714056,0.68278563,1.0699811,3198,2348
1.6333865,0.6862915,1.1086541,3203,2279
1.7270081,0.7011963,1.1686157,3208,2209
1.7937286,0.70295334,1.2099823,3213,2139
1.8329674,0.6927055,1.2327403,3217,2070
1.9120073,0.69600266,1.2820599,3221,2000
1.9635407,0.68759584,1.3127307,3225,1929
1.9546509,0.65810305,1.3037708,3229,1860
1.8855609,0.6090788,1.254011,3232,1790
1.8839334,0.5833937,1.2500887,3236,1720
2.1289291,0.6308533,1.4094675,3240,1650
2.1316109,0.6034584,1.4080696,3243,1580
2.1748343,0.58699584,1.4333487,3246,1510
2.0872436,0.5359824,1.3726263,3249,1440
2.0845885,0.5083321,1.368652,3253,1370
2.0901806,0.48254654,1.369351,3255,1299
2.0952291,0.4568387,1.3704383,3258,1230
2.0959961,0.4302063,1.3687537,3260,1159
2.0922995,0.40272462,1.3642142,3262,1089
2.0924797,0.3761917,1.3622116,3264,1019
2.0838025,0.3484494,1.355115,3267,949
2.091868,0.32335496,1.3582749,3268,878
2.0993335,0.29831177,1.3616675,3270,808
2.1065812,0.27301255,1.3650627,3272,738
2.1053321,0.24663208,1.3628211,3273,668
2.1037643,0.2202774,1.360424,3274,597
2.1184735,0.1955716,1.3692328,3276,527
2.1077554,0.16854675,1.361652,3278,457
2.1055567,0.14232117,1.3588684,3277,386
2.1112092,0.11673935,1.3618056,3278,316
2.1120536,0.090797275,1.3623428,3279,246
2.1088505,0.064726256,1.3596344,3279,175
2.10931,0.038835753,1.3599408,3280,105
2.1221466,0.013022614,1.368222,3281,35
2.113742,-0.012971039,1.3628033,3281,-35
2.1051083,-0.038758393,1.3572317,3280,-105
2.1088505,-0.064726256,1.3596344,3279,-175
2.1120536,-0.090797275,1.3623428,3279,-246
2.1112092,-0.11673935,1.3618056,3278,-316
2.109751,-0.14260468,1.3615754,3277,-386
2.124517,-0.16988708,1.3724803,3278,-457
2.126847,-0.1963446,1.3746448,3276,-527
2.1163116,-0.22159119,1.3685379,3274,-597
2.1011548,-0.24614273,1.3601171,3273,-668
2.0940669,-0.27139068,1.3569534,3272,-738
2.0910027,-0.297128,1.356264,3270,-808
2.0835502,-0.32206926,1.3528743,3268,-878
2.0713494,-0.34636703,1.3470168,3267,-949
2.080049,-0.37395692,1.3541193,3264,-1019
2.0840294,-0.40113282,1.358822,3262,-1089
2.0836182,-0.4276657,1.3606704,3260,-1159
2.0787635,-0.4532486,1.3596687,3258,-1230
2.0778613,-0.47970244,1.3612802,3255,-1299
2.0804932,-0.5073334,1.3659631,3253,-1370
2.0668204,-0.53073794,1.3591956,3249,-1440
2.04858,-0.5529193,1.3501393,3246,-1510
2.0463464,-0.5793201,1.3517468,3243,-1580
2.0439339,-0.6056671,1.3531959,3240,-1650
2.045298,-0.6333632,1.3571626,3236,-1720
2.042356,-0.65972716,1.3582892,3232,-1790
2.0347595,-0.68507445,1.357204,3229,-1860
2.0273957,-0.70995665,1.3554212,3225,-1929
2.019334,-0.7350714,1.3540258,3221,-2000
1.9913231,-0.7525505,1.3392406,3217,-2070
1.9947839,-0.7817459,1.3456067,3213,-2139
2.0017593,-0.8127502,1.3545319,3208,-2209
1.9889803,-0.83569944,1.350012,3203,-2279
1.9837052,-0.8619324,1.3507187,3198,-2348
1.9816406,-0.8900781,1.3544531,3194,-2418
1.9720312,-0.914375,1.3522656,3188,-2487
1.9617188,-0.93890625,1.3504688,3183,-2557
1.9359283,-0.9557556,1.3380579,3178,-2627
1.95555,-0.9952148,1.3570825,3173,-2697
1.9558324,-1.0253924,1.3628343,3168,-2766
1.9370145,-1.0455807,1.3553737,3162,-2835
1.9217725,-1.0674939,1.35039,3156,-2905
1.9138215,-1.093308,1.3505615,3149,-2973
1.8983094,-1.1148138,1.3454297,3143,-3042
1.8929416,-1.143005,1.3485104,3137,-3112
1.8842418,-1.1685736,1.348342,3130,-3180
1.8927269,-1.2059555,1.3616066,3124,-3250
1.8726681,-1.2245842,1.3534667,3116,-3318
1.8590218,-1.2479666,1.350913,3110,-3387
1.8485839,-1.2737,1.3508575,3103,-3456
1.8310107,-1.2942526,1.3455663,3096,-3525
1.8201996,-1.3196747,1.3452606,3089,-3594
1.8125393,-1.3475058,1.3475058,3082,-3662
1.8012695,-1.3726639,1.3470119,3074,-3730
1.8031793,-1.4083356,1.3567071,3066,-3799
1.7879181,-1.4307404,1.3534601,3058,-3866
1.7648605,-1.4480865,1.3456223,3051,-3936
1.7493331,-1.4700028,1.3422257,3043,-4004
1.7358618,-1.495139,1.3417603,3035,-4073
1.729617,-1.5251788,1.3457556,3026,-4140
1.7124243,-1.5472604,1.3426594,3018,-4209
1.6832612,-1.5566971,1.3288819,3009,-4276
1.6910189,-1.6018667,1.3455746,3001,-4344
1.6647727,-1.6136696,1.3341529,2991,-4410
1.643735,-1.6318387,1.328237,2983,-4479
1.6317346,-1.658888,1.3296131,2974,-4547
1.6193525,-1.6859293,1.3309622,2965,-4615
1.6007174,-1.7064524,1.3272681,2956,-4683
1.5937625,-1.73965,1.333332,2947,-4750
1.5717529,-1.756665,1.326992,2937,-4817
1.5553058,-1.7799262,1.3254752,2928,-4885
1.5472888,-1.812974,1.331175,2918,-4952
1.5330554,-1.8393488,1.3319538,2908,-5018
1.5159155,-1.8622239,1.330112,2898,-5085
1.4957268,-1.8814911,1.3258396,2888,-5151
1.4753705,-1.9005071,1.3215674,2877,-5217
1.4575806,-1.9227676,1.3195267,2867,-5283
1.4328988,-1.9384552,1.3131065,2857,-5352
1.4171839,-1.9638455,1.3133501,2847,-5418
1.4088342,-1.9998218,1.3206867,2836,-5483
1.3710556,-1.9967041,1.3022385,2826,-5552
1.3596399,-2.0288086,1.3068908,2815,-5617
1.3381684,-2.046138,1.3020724,2803,-5681
1.3220421,-2.0751514,1.3047038,2793,-5749
1.3093653,-2.1070886,1.3091084,2782,-5814
1.28302,-2.1208496,1.3022461,2771,-5882
1.2493767,-2.1181731,1.2856224,2759,-5946
1.2362792,-2.1542602,1.2925904,2749,-6014
1.2159973,-2.178762,1.2924902,2738,-6083
1.1993835,-2.2061691,1.2941307,2726,-6146
1.1763742,-2.2263968,1.2915847,2715,-6214
1.1610305,-2.2575257,1.2953202,2703,-6278
1.1393567,-2.281419,1.2948902,2692,-6346
1.1096283,-2.2890105,1.285231,2680,-6413
1.091227,-2.3204012,1.2890826,2668,-6481
1.0726304,-2.346968,1.2901852,2656,-6543
0.31355393,0.6939569,0.38875258,2704,6568
0.28940797,0.6209253,0.3515381,2716,6501
0.29394883,0.61301786,0.35077286,2729,6438
0.30088258,0.608839,0.35215026,2740,6370
0.3138281,0.6164447,0.36043578,2752,6301
0.31617278,0.60438234,0.35729522,2764,6238
0.32932723,0.6116283,0.36562103,2775,6170
0.32935548,0.5956409,0.36006805,2787,6105
0.34703612,0.6102246,0.3731172,2799,6037
0.38458815,0.6589659,0.40755418,2810,5973
0.38075316,0.63474244,0.39718506,2821,5904
0.4058667,0.65970457,0.4176831,2833,5839
0.41335937,0.65411866,0.41910645,2844,5770
0.40832198,0.63026506,0.40871337,2855,5706
0.41061202,0.617375,0.40527403,2866,5637
0.40973145,0.6011725,0.39952362,2877,5572
0.40856948,0.5850351,0.393721,2888,5507
0.4177826,0.5830438,0.39736268,2898,5437
0.4627681,0.63044405,0.43520904,2909,5372
0.4800064,0.63836104,0.44644225,2920,5305
0.49748915,0.6459227,0.45771286,2931,5239
0.50172544,0.6360544,0.4567694,2941,5173
0.5058311,0.62614214,0.45575333,2951,5106
0.5153485,0.62291384,0.45966431,2962,5039
0.53049546,0.6261548,0.4685202,2972,4972
0.5287729,0.6094327,0.46247405,2982,4905
0.5612915,0.63175046,0.48630983,2991,4837
0.57690585,0.6340677,0.49521148,3001,4770
0.59270096,0.6360686,0.5041562,3010,4702
0.6055989,0.6346538,0.51056653,3020,4634
0.6186035,0.6329613,0.5170044,3029,4565
0.6221228,0.62215394,0.51603884,3039,4500
0.6289709,0.6140918,0.5173773,3047,4431
0.66380495,0.63266873,0.54156786,3056,4362
0.69876343,0.6506955,0.5660431,3066,4295
0.7282742,0.66188323,0.585289,3074,4226
0.74485964,0.6612439,0.59458494,3083,4159
0.7425308,0.64318895,0.58818924,3091,4089
0.75919676,0.6421277,0.5974524,3099,4022
0.7627272,0.6298077,0.5963576,3108,3954
0.79313964,0.638688,0.61570007,3115,3884
0.8235329,0.647155,0.6352669,3123,3816
0.847435,0.6497574,0.6497574,3131,3747
0.8852539,0.66200393,0.6746109,3139,3678
0.90618944,0.66087097,0.68651444,3147,3610
0.9133728,0.6493535,0.68795913,3154,3541
0.93797547,0.64992124,0.7024286,3161,3471
0.9729236,0.6573193,0.7250812,3169,3404
1.0263345,0.67531526,0.7606447,3176,3334
1.0445629,0.6691815,0.7699219,3182,3264
1.0480014,0.6538797,0.76888365,3190,3196
1.0552835,0.6405588,0.77012694,3195,3125
1.0657269,0.629527,0.7742438,3202,3057
1.087146,0.624646,0.78634036,3209,2988
1.1788242,0.65853137,0.84895,3215,2918
1.2305427,0.66800016,0.8824007,3221,2849
1.2676808,0.66831666,0.9051759,3227,2779
1.3238134,0.6774023,0.9413379,3233,2709
1.3539716,0.6720694,0.9588037,3238,2639
1.4107804,0.6788118,0.99497926,3243,2569
1.4484305,0.67557955,1.0181693,3249,2500
1.5097302,0.68164533,1.057039,3254,2429
1.5632446,0.68311614,1.0909836,3259,2360
1.6252105,0.68633497,1.1298474,3263,2289
1.714386,0.69951785,1.1880859,3268,2219
1.7766935,0.6997458,1.2274127,3273,2149
1.8157554,0.6895175,1.2505215,3277,2079
1.8977687,0.6945348,1.3038582,3282,2010
1.9450151,0.68477476,1.332239,3286,1939
1.9601594,0.6634166,1.3393959,3291,1869
1.8877128,0.6129744,1.2860698,3294,1798
1.8741852,0.5833576,1.2738318,3298,1728
2.093349,0.6235051,1.4195215,3301,1658
2.0959961,0.5963623,1.4180664,3305,1588
2.0741994,0.5626593,1.4001513,3308,1517
2.0235326,0.5222536,1.3629303,3311,1447
2.0330048,0.49827576,1.3669586,3314,1377
2.0422692,0.47404495,1.3709157,3318,1306
2.0476203,0.44858825,1.3715272,3319,1235
2.0564566,0.42412934,1.375184,3322,1165
2.0770893,0.4019525,1.3874543,3325,1095
2.0773766,0.3754982,1.3854058,3327,1024
2.0402436,0.3427597,1.3585007,3329,953
2.0437179,0.31760788,1.3593315,3331,883
2.0429058,0.29178986,1.3573391,3333,812
2.045921,0.26653808,1.3579422,3335,742
2.0487854,0.24121094,1.3583945,3336,671
2.0388906,0.21457276,1.3504448,3337,600
2.070086,0.19209962,1.3703815,3339,530
2.0639672,0.16582276,1.3649536,3339,459
2.0572278,0.13982697,1.3598267,3340,388
2.0628273,0.11465607,1.362806,3341,318
2.0594893,0.08902191,1.3606558,3342,247
2.056298,0.06341538,1.3578262,3342,176
2.0567493,0.03806427,1.3581271,3343,106
2.0611475,0.012738952,1.3610327,3343,35
2.0611475,-0.012738952,1.3610327,3343,-35
2.0609214,-0.038141478,1.3608819,3343,-106
2.0604692,-0.063544005,1.3605804,3342,-176
2.0594893,-0.08902191,1.3606558,3342,-247
2.05866,-0.11442444,1.3600528,3341,-318
2.0447345,-0.13897781,1.3515686,3340,-388
2.0639672,-0.16582276,1.3649536,3339,-459
2.070086,-0.19209962,1.3703815,3339,-530
2.0513482,-0.21588379,1.358696,3337,-600
2.0487854,-0.24121094,1.3583945,3336,-671
2.045921,-0.26653808,1.3579422,3335,-742
2.0387704,-0.29119918,1.3545915,3333,-812
2.0313318,-0.31568298,1.3510932,3331,-883
2.0155134,-0.33860505,1.342034,3329,-953
2.0362403,-0.3680626,1.3579719,3327,-1024
2.0442498,-0.39559755,1.3655182,3325,-1095
2.035974,-0.41990495,1.3614869,3322,-1165
2.0312722,-0.44500673,1.360577,3319,-1235
2.0137343,-0.46742156,1.3517612,3318,-1306
2.0126748,-0.493293,1.353289,3314,-1377
2.0032568,-0.5170206,1.3492737,3311,-1447
1.9892907,-0.5396265,1.3428351,3308,-1517
2.0194116,-0.57457215,1.3662524,3305,-1588
2.025044,-0.6031604,1.3732032,3301,-1658
1.9943253,-0.6207523,1.3554877,3298,-1728
1.9874862,-0.6453726,1.3540438,3294,-1798
1.9840153,-0.6714906,1.3556969,3291,-1869
1.9767058,-0.69593203,1.3539456,3286,-1939
1.9648416,-0.7190817,1.3499405,3283,-2010
1.9415219,-0.7372763,1.3371377,3277,-2079
1.968451,-0.77526903,1.3598868,3273,-2149
1.9637512,-0.8012659,1.3608985,3268,-2219
1.9393921,-0.8190155,1.3482666,3263,-2289
1.9337915,-0.84503996,1.3495871,3259,-2360
1.932301,-0.8724367,1.3529024,3254,-2429
1.9185016,-0.89483094,1.3486041,3249,-2500
1.916532,-0.92215943,1.3516699,3243,-2569
1.9023678,-0.9442763,1.347146,3238,-2639
1.9029819,-0.97376585,1.3531733,3233,-2709
1.9071305,-1.0054321,1.3617691,3227,-2779
1.8811316,-1.0211725,1.3489267,3221,-2849
1.869859,-1.044567,1.3466104,3215,-2918
1.858432,-1.067807,1.344217,3209,-2988
1.8467734,-1.0908927,1.341669,3202,-3057
1.8458395,-1.1204276,1.3470606,3195,-3125
1.8186966,-1.1347396,1.334317,3190,-3196
