2.9614792,0.36092377,-1.2890701,-2336,694
2.9881577,0.32921904,-1.2993858,-2337,628
2.9777546,0.2932886,-1.2940314,-2338,562
2.925879,0.25410157,-1.2706054,-2339,496
2.9147882,0.21927978,-1.2650383,-2340,430
3.122989,0.19876404,-1.3549255,-2341,364
3.0929947,0.16088104,-1.3410187,-2341,297
3.0991242,0.12532654,-1.3432117,-2341,231
3.1002588,0.089533694,-1.3433148,-2341,165
3.0551083,0.052945863,-1.3237481,-2342,99
3.0049484,0.017390441,-1.3020843,-2342,33
2.98201,-0.01725769,-1.2921448,-2342,-33
3.0046487,-0.05207138,-1.3018844,-2342,-99
3.058983,-0.088341676,-1.3254304,-2341,-165
3.0945396,-0.12514114,-1.3412247,-2341,-231
3.1388168,-0.16326447,-1.3608856,-2341,-297
3.1504638,-0.20051269,-1.3668457,-2341,-364
3.1710334,-0.23855713,-1.3762505,-2340,-430
3.1818933,-0.27633545,-1.3817835,-2339,-496
3.1832743,-0.3135309,-1.3833433,-2338,-562
3.1615164,-0.3483188,-1.37477,-2337,-628
3.1482801,-0.38368973,-1.3703808,-2336,-694
3.1438518,-0.4200659,-1.3698535,-2335,-761
3.139107,-0.45644212,-1.3692209,-2334,-827
3.1339407,-0.4926074,-1.3683773,-2333,-893
3.1419342,-0.5311743,-1.3737887,-2332,-959
3.1676352,-0.5731137,-1.3864688,-2330,-1025
3.1476886,-0.6070862,-1.3796833,-2328,-1091
3.1408722,-0.64340484,-1.3787247,-2326,-1157
3.146991,-0.6827519,-1.3839017,-2325,-1224
3.1484609,-0.72106415,-1.3866701,-2323,-1289
3.1403084,-0.7575357,-1.3855973,-2321,-1356
3.131834,-0.7937927,-1.3845247,-2319,-1422
3.1406999,-0.83466476,-1.3912158,-2317,-1488
3.144818,-0.87460786,-1.3957107,-2315,-1554
3.139592,-0.9121838,-1.3961577,-2312,-1620
3.1292853,-0.948528,-1.3949643,-2310,-1686
3.1142669,-0.98348695,-1.3917023,-2308,-1752
3.1032166,-1.0195633,-1.3902938,-2305,-1818
3.1006591,-1.058396,-1.3926892,-2302,-1884
3.080249,-1.0911744,-1.3870437,-2299,-1950
3.0941522,-1.1362305,-1.3970172,-2296,-2016
3.0903056,-1.1752298,-1.399057,-2293,-2082
3.0899057,-1.2162254,-1.4033624,-2290,-2148
3.0680594,-1.2482883,-1.3972754,-2287,-2213
3.0626218,-1.2875158,-1.3995118,-2284,-2280
3.0652313,-1.3303909,-1.4053955,-2281,-2346
3.0588224,-1.3697809,-1.4072757,-2277,-2412
3.022802,-1.3955039,-1.3955039,-2274,-2478
3.0157092,-1.4345001,-1.39716,-2270,-2543
3.012342,-1.4753876,-1.4007307,-2266,-2609
3.0002673,-1.5122974,-1.4002136,-2262,-2675
2.9914672,-1.551651,-1.4021667,-2259,-2741
2.9949098,-1.5970459,-1.409079,-2254,-2806
2.9769654,-1.6320374,-1.4069481,-2251,-2873
2.9672976,-1.6707778,-1.4079651,-2246,-2938
2.9287372,-1.6939563,-1.3960675,-2242,-3004
2.9216743,-1.7352173,-1.3993218,-2238,-3070
2.9181795,-1.7789404,-1.4044564,-2233,-3136
2.9102125,-1.8203546,-1.4074405,-2229,-3202
2.905639,-1.8642032,-1.4122958,-2224,-3268
2.8811684,-1.8955803,-1.4075607,-2220,-3334
2.8717694,-1.9367694,-1.4102613,-2215,-3399
2.858162,-1.9754791,-1.4110565,-2210,-3465
2.8251865,-2.0006323,-1.4023347,-2205,-3530
2.8106928,-2.0387895,-1.4028893,-2200,-3595
2.803413,-2.0824237,-1.4070493,-2194,-3660
2.787127,-2.1213639,-1.4079063,-2189,-3727
2.6725602,-2.0821977,-1.3579452,-2184,-3792
2.6536896,-2.115947,-1.3564591,-2178,-3856
2.7089663,-2.2120295,-1.3941807,-2173,-3923
2.6957648,-2.2522192,-1.3960437,-2167,-3987
2.6669693,-2.2811515,-1.3909714,-2162,-4054
2.6704302,-2.3362916,-1.4017518,-2155,-4118
2.696337,-2.4143927,-1.4257476,-2150,-4184
2.679563,-2.4556406,-1.4276702,-2144,-4250
2.6568623,-2.4895704,-1.4253219,-2137,-4313
2.6324217,-2.5241761,-1.4234408,-2132,-4379
2.584388,-2.5356596,-1.4087393,-2126,-4445
2.534552,-2.5420716,-1.3915832,-2118,-4508
2.4672937,-2.531833,-1.3660794,-2112,-4573
2.4457397,-2.5676208,-1.365741,-2106,-4639
2.3823402,-2.5589156,-1.3420879,-2100,-4704
2.3573685,-2.5903702,-1.3398743,-2093,-4769
2.266658,-2.5483613,-1.3001343,-2086,-4834
2.1865652,-2.5151267,-1.2659405,-2079,-4899
2.1619592,-2.544366,-1.263794,-2073,-4964
2.150549,-2.5867586,-1.2680362,-2065,-5026
2.0779688,-2.5576074,-1.2375,-2058,-5090
2.0528436,-2.5856597,-1.23517,-2051,-5155
1.9828714,-2.5588806,-1.2070569,-2044,-5222
1.9493772,-2.5747085,-1.199463,-2037,-5286
1.9045753,-2.5750067,-1.1848491,-2030,-5351
1.8628033,-2.5783987,-1.172037,-2022,-5415
1.8429894,-2.611837,-1.1729627,-2015,-5479
1.8306093,-2.656653,-1.1789992,-2007,-5543
1.7913951,-2.6626537,-1.1678616,-1999,-5606
1.7651074,-2.687635,-1.165188,-1991,-5670
1.743707,-2.7201786,-1.1657909,-1983,-5733
1.744873,-2.7936554,-1.1836853,-1976,-5801
1.7123026,-2.810143,-1.177408,-1968,-5864
1.6675736,-2.8060071,-1.1626488,-1960,-5927
1.578366,-2.723637,-1.1162213,-1952,-5990
1.5446563,-2.7392025,-1.1104792,-1944,-6058
1.5333138,-2.790493,-1.1191635,-1936,-6121
1.5142701,-2.8295288,-1.1227844,-1928,-6184
1.4771153,-2.8349168,-1.1131824,-1919,-6247
0.4307837,0.8222394,-0.31426513,-1870,6234
0.3902362,0.725354,-0.2801587,-1878,6172
0.37335098,0.67487216,-0.2634424,-1885,6104
0.38756806,0.6827338,-0.2694055,-1894,6041
0.40199906,0.6903532,-0.27538314,-1901,5978
0.35406157,0.5920557,-0.23877381,-1909,5911
0.37023926,0.6039505,-0.24629974,-1917,5849
0.36411515,0.5795708,-0.23904113,-1925,5786
0.5082492,0.7894594,-0.32930833,-1932,5722
0.3794583,0.57456756,-0.24244964,-1939,5655
0.39617157,0.58568573,-0.25003052,-1947,5592
0.4346631,0.6274731,-0.27104646,-1954,5528
0.46320954,0.653038,-0.28546906,-1962,5465
0.4785112,0.6589923,-0.29153624,-1969,5401
0.4547104,0.6117764,-0.27398804,-1977,5337
0.30778748,0.40409362,-0.183219,-1983,5270
0.59826463,0.76753235,-0.35240158,-1990,5206
0.5508673,0.6906567,-0.32114562,-1997,5142
0.48408034,0.5931682,-0.27936035,-2004,5078
0.5205891,0.6234874,-0.29747573,-2011,5013
0.5486847,0.6422882,-0.3105011,-2018,4949
0.55563354,0.63580626,-0.31148988,-2024,4884
0.5469017,0.6117363,-0.30379868,-2031,4820
0.56936646,0.6225678,-0.3134125,-2037,4755
0.566548,0.60554767,-0.30913422,-2044,4690
0.576376,0.602233,-0.3118042,-2050,4625
0.63174987,0.6458267,-0.33916947,-2057,4563
0.6387883,0.63834655,-0.3401413,-2063,4498
0.6457678,0.63074857,-0.34108368,-2069,4432
0.66283387,0.6327771,-0.34731263,-2075,4367
0.6697723,0.6249115,-0.34823975,-2081,4301
0.68325347,0.62352353,-0.35285065,-2087,4238
0.7249658,0.64647704,-0.3715918,-2093,4172
0.72151643,0.6286758,-0.36713943,-2098,4106
0.7352834,0.62640744,-0.37176362,-2105,4042
0.76371366,0.63556135,-0.3834494,-2110,3976
0.7776756,0.6326386,-0.38806686,-2116,3912
0.7956455,0.63208556,-0.39437988,-2121,3846
0.81712097,0.63430023,-0.40263245,-2126,3782
0.83155763,0.6302051,-0.40711427,-2131,3715
0.84581023,0.6260727,-0.41174927,-2136,3650
0.88296294,0.63780856,-0.4271814,-2141,3584
0.90883166,0.64097047,-0.43729386,-2146,3519
0.9425446,0.648858,-0.4511151,-2151,3454
0.9726856,0.6534558,-0.4631177,-2156,3389
0.9875366,0.6472086,-0.46780092,-2161,3323
1.0062984,0.6432059,-0.47426727,-2165,3258
1.0408374,0.64864016,-0.48815185,-2170,3193
1.0439177,0.6340637,-0.4872258,-2174,3127
1.0747932,0.636051,-0.49928528,-2179,3061
1.0897727,0.6281265,-0.50386584,-2183,2995
1.1573365,0.6494525,-0.5326715,-2186,2929
1.1725488,0.64032716,-0.5372754,-2190,2863
1.1998353,0.6377185,-0.5476761,-2195,2799
1.2603543,0.65130526,-0.57286286,-2198,2732
1.3128684,0.659675,-0.5945201,-2202,2667
1.3659326,0.66660035,-0.61600095,-2206,2601
1.414952,0.6706259,-0.635813,-2209,2535
1.4557806,0.66976255,-0.6519177,-2213,2470
1.5052972,0.6717371,-0.6717371,-2217,2404
1.5592571,0.67451704,-0.693501,-2220,2339
1.626296,0.6814119,-0.72094434,-2223,2273
1.6851338,0.6833844,-0.7446107,-2226,2207
1.7442513,0.6841049,-0.76827395,-2229,2141
1.8985196,0.7197655,-0.83397675,-2233,2076
1.9281372,0.7056061,-0.84435606,-2235,2010
1.9573867,0.69101167,-0.8550293,-2238,1944
2.0523043,0.69817567,-0.8941887,-2241,1878
2.0729945,0.6788025,-0.90091676,-2244,1813
2.0758612,0.653432,-0.89994234,-2246,1747
2.0254145,0.61198515,-0.87594175,-2248,1681
2.027547,0.58721876,-0.874866,-2251,1615
2.0204024,0.5601569,-0.8700235,-2253,1549
3.1602666,0.8370337,-1.357749,-2255,1483
3.164757,0.7993881,-1.3571259,-2257,1417
3.263047,0.78439593,-1.3966262,-2259,1351
3.2668672,0.74565214,-1.395813,-2261,1285
3.2431579,0.70127076,-1.3836713,-2263,1220
3.250728,0.6637497,-1.3844392,-2264,1154
3.2576396,0.62633836,-1.3854266,-2266,1088
3.2915726,0.5936203,-1.3978729,-2268,1022
3.279683,0.5526097,-1.3909307,-2269,956
3.098474,0.4855957,-1.3127686,-2271,890
2.9211915,0.42324218,-1.2360351,-2272,824
2.9347284,0.3908661,-1.2404855,-2273,758
3.0670166,0.3725403,-1.2950989,-2274,692
3.1211114,0.34280685,-1.317193,-2275,626
3.101806,0.30449706,-1.3077283,-2276,560
3.0957143,0.26801208,-1.3043735,-2277,494
3.1674488,0.23749557,-1.333718,-2277,428
3.1651611,0.20072265,-1.3323071,-2278,362
3.1626573,0.16405563,-1.3303707,-2278,296
3.1642296,0.12757553,-1.3306851,-2279,230
3.1839182,0.091731265,-1.3385384,-2279,165
3.184551,0.055038758,-1.3388547,-2279,99
3.1434896,0.0181073,-1.3215207,-2280,33
3.1434896,-0.0181073,-1.3215207,-2280,-33
3.0923786,-0.05344574,-1.3001034,-2279,-99
3.0963721,-0.08920898,-1.3017334,-2279,-165
3.1043534,-0.12516144,-1.3055048,-2279,-230
3.1672606,-0.16429444,-1.3323071,-2278,-296
3.1881638,-0.2021814,-1.3419896,-2278,-362
3.227212,-0.24197662,-1.3588824,-2277,-428
3.2564712,-0.2819296,-1.372108,-2277,-494
3.2394602,-0.31801024,-1.3657635,-2276,-560
3.1990247,-0.35136443,-1.3500744,-2275,-626
3.199768,-0.38866517,-1.3511554,-2274,-692
3.186146,-0.4243515,-1.3467577,-2273,-758
3.1767957,-0.4602759,-1.3441882,-2272,-824
3.1713793,-0.4970215,-1.3436573,-2271,-890
3.1978047,-0.53881365,-1.3562056,-2269,-956
3.2053106,-0.57806337,-1.361239,-2268,-1022
3.2032702,-0.61588484,-1.3623041,-2266,-1088
3.1874313,-0.6508255,-1.3574822,-2264,-1154
3.1845193,-0.6885913,-1.3586535,-2263,-1220
3.1768708,-0.72511077,-1.3573608,-2261,-1285
3.177768,-0.76389587,-1.3601258,-2259,-1351
3.164757,-0.7993881,-1.3571259,-2257,-1417
3.1915123,-0.84530944,-1.3711731,-2255,-1483
3.2041626,-0.8883545,-1.3797729,-2253,-1549
3.1988213,-0.92644364,-1.380259,-2251,-1615
3.1575239,-0.9540555,-1.3655511,-2248,-1681
3.1644764,-0.9961023,-1.3718866,-2246,-1747
3.149019,-1.031147,-1.3685536,-2244,-1813
3.159411,-1.0748035,-1.3765548,-2241,-1878
3.1518722,-1.1126981,-1.3768066,-2238,-1944
3.1961913,-1.1696533,-1.3996533,-2235,-2010
3.1872642,-1.2083534,-1.4000931,-2233,-2076
3.1913338,-1.2516587,-1.4056567,-2229,-2141
3.1773133,-1.2885187,-1.4039607,-2226,-2207
3.1800277,-1.3324196,-1.4097207,-2223,-2273
3.1652496,-1.3692513,-1.407788,-2220,-2339
3.1585872,-1.4095157,-1.4095157,-2217,-2404
3.1429715,-1.4459903,-1.407464,-2213,-2470
3.1438727,-1.4900594,-1.4127088,-2209,-2535
3.1441436,-1.5344002,-1.417929,-2206,-2601
3.1227217,-1.5690693,-1.4140952,-2202,-2667
3.1096978,-1.6069787,-1.4134362,-2198,-2732
3.099916,-1.6476208,-1.4149857,-2195,-2799
3.0779407,-1.6808587,-1.4103479,-2190,-2863
3.059253,-1.7167346,-1.4080408,-2186,-2929
3.0199974,-1.7406753,-1.3963219,-2183,-2995
2.984649,-1.7662829,-1.3864911,-2179,-3061
2.9809208,-1.8105774,-1.3912797,-2174,-3127
2.9766374,-1.8550125,-1.3960403,-2170,-3193
2.9875708,-1.9095956,-1.4080386,-2165,-3258
3.0014892,-1.9671063,-1.42182,-2161,-3323
2.9759545,-1.9992636,-1.4169196,-2156,-3389
2.957904,-2.0362537,-1.4156946,-2151,-3454
2.928035,-2.0650513,-1.4088547,-2146,-3519
2.9167964,-2.1069486,-1.411159,-2141,-3584
2.9154255,-2.1580117,-1.4192597,-2136,-3650
2.8993146,-2.1972775,-1.4194474,-2131,-3715
2.8746462,-2.2314796,-1.4164681,-2126,-3782
2.8431551,-2.258691,-1.4092749,-2121,-3846
2.756227,-2.2421887,-1.3753811,-2116,-3912
2.7285733,-2.2707145,-1.3699765,-2110,-3976
2.6818306,-2.2847228,-1.3559494,-2105,-4042
2.7523212,-2.3981683,-1.4005027,-2098,-4106
2.7395344,-2.4429374,-1.4041883,-2093,-4172
2.701957,-2.4657524,-1.3953639,-2087,-4238
2.6790893,-2.499646,-1.392959,-2081,-4301
2.6513355,-2.5311084,-1.3892505,-2075,-4367
2.603147,-2.5426033,-1.3749384,-2069,-4432
2.5518434,-2.5500786,-1.3588028,-2063,-4498
2.4942663,-2.5498443,-1.3391043,-2057,-4563
2.4641695,-2.5747151,-1.3330505,-2050,-4625
2.384623,-2.548774,-1.3011582,-2044,-4690
2.3565445,-2.5767388,-1.2971795,-2037,-4755
2.296987,-2.5692925,-1.2759545,-2031,-4820
2.1916656,-2.5079026,-1.2286545,-2024,-4884
2.1673045,-2.5370383,-1.2264793,-2018,-4949
2.1605954,-2.587653,-1.2346103,-2011,-5013
2.105601,-2.5800996,-1.2151319,-2004,-5078
2.0540318,-2.575268,-1.1974633,-1997,-5142
1.9826547,-2.5436096,-1.1678623,-1990,-5206
1.9550204,-2.566743,-1.1637799,-1983,-5270
1.9114678,-2.5717268,-1.1517645,-1977,-5337
1.8780873,-2.5864496,-1.1442376,-1969,-5401
1.8501134,-2.6083107,-1.140197,-1962,-5465
1.8406104,-2.6570776,-1.1477646,-1954,-5528
1.7827721,-2.6355858,-1.1251373,-1947,-5592
1.7803352,-2.695745,-1.1375206,-1939,-5655
1.7699332,-2.7492228,-1.1467873,-1932,-5722
1.7477527,-2.7819397,-1.1473975,-1925,-5786
1.715442,-2.798304,-1.1411889,-1917,-5849
1.6708797,-2.7940161,-1.1268162,-1909,-5911
1.6032388,-2.7532432,-1.0982736,-1901,-5978
1.5689502,-2.7638378,-1.0906055,-1894,-6041
1.5392139,-2.782295,-1.0860938,-1885,-6104
1.534032,-2.8513916,-1.1013135,-1878,-6172
1.4989514,-2.8610575,-1.0935144,-1870,-6234
0.39237306,0.7435588,-0.27640045,-1819,6217
0.40257508,0.74303377,-0.27912995,-1827,6155
0.25827882,0.46451905,-0.1763672,-1835,6092
0.27063674,0.47364503,-0.18177566,-1842,6025
0.26608428,0.4540709,-0.1761644,-1850,5962
0.31730348,0.528125,-0.20717163,-1858,5900
0.33817384,0.54837036,-0.21752197,-1865,5833
0.33643708,0.5323775,-0.21355575,-1873,5770
0.37298736,0.57609713,-0.23373108,-1880,5707
0.3686792,0.5559233,-0.22814392,-1888,5644
0.41753432,0.6139281,-0.25489503,-1894,5578
0.43760467,0.6284125,-0.26400146,-1902,5514
0.46627045,0.6540497,-0.27807617,-1909,5451
0.4900049,0.6714404,-0.28891113,-1916,5387
0.39016753,0.52175355,-0.22726959,-1923,5321
0.25811005,0.33728027,-0.14874116,-1930,5257
0.5641855,0.7204843,-0.3217151,-1936,5193
0.5011856,0.62551576,-0.28287506,-1943,5129
0.49896652,0.60869277,-0.278826,-1950,5065
0.5115695,0.6100514,-0.28309357,-1957,5001
0.545766,0.6362109,-0.29914734,-1964,4937
0.56197935,0.640388,-0.30515578,-1970,4873
0.55633897,0.6197809,-0.2993573,-1977,4808
0.56621796,0.6166824,-0.30197203,-1983,4744
0.58580136,0.62373656,-0.30967438,-1989,4679
0.5925775,0.6168216,-0.31059083,-1995,4614
0.63881224,0.650061,-0.3320462,-2001,4550
0.66586304,0.66238403,-0.34329224,-2007,4484
0.67646116,0.6578137,-0.34595948,-2013,4419
0.67346466,0.64014035,-0.34173247,-2019,4354
0.6801416,0.6324362,-0.34278992,-2025,4291
0.68709046,0.62442994,-0.34366608,-2031,4226
0.7184822,0.63809127,-0.356723,-2036,4160
0.7148721,0.62040037,-0.35239655,-2042,4095
0.73569185,0.6243243,-0.36038056,-2048,4031
0.77141356,0.6395248,-0.37525758,-2053,3965
0.78574216,0.63630617,-0.37965453,-2058,3900
0.7888298,0.62437135,-0.37888107,-2063,3836
0.8216263,0.63504547,-0.3920636,-2068,3770
0.82466966,0.6227428,-0.3912755,-2073,3705
0.85415953,0.62963957,-0.40272963,-2078,3639
0.8798413,0.6334192,-0.41259155,-2083,3575
0.9133902,0.6420645,-0.4260251,-2088,3510
0.94364774,0.64708024,-0.43754274,-2092,3443
0.97388124,0.65174365,-0.44925386,-2097,3379
0.99261385,0.64809996,-0.45559233,-2102,3314
1.0114355,0.6441078,-0.4619145,-2106,3249
1.0421519,0.6471062,-0.47366166,-2111,3183
1.0491748,0.6349867,-0.47458467,-2115,3118
1.0882013,0.6417311,-0.48993042,-2119,3052
1.1113129,0.6383629,-0.49804306,-2123,2987
1.1670761,0.6527306,-0.5206955,-2127,2921
1.1905353,0.6480185,-0.52884066,-2131,2855
1.2141021,0.64283675,-0.5369652,-2134,2790
1.2415924,0.6395874,-0.54711914,-2139,2725
1.2652441,0.63341063,-0.55524904,-2142,2659
1.3724389,0.6677515,-0.6001355,-2146,2594
1.4134498,0.66758054,-0.61559325,-2149,2528
1.4501715,0.66489744,-0.62941253,-2153,2463
1.5082734,0.6708252,-0.652462,-2156,2397
1.5709741,0.6773096,-0.6773096,-2159,2332
1.6297394,0.6806671,-0.70038146,-2163,2266
1.6974176,0.68620545,-0.7271469,-2166,2201
1.7567974,0.6868472,-0.7502228,-2168,2135
1.8815573,0.71078706,-0.80103946,-2171,2069
1.9283545,0.70350677,-0.8189032,-2174,2004
1.9798449,0.69659424,-0.838258,-2177,1938
2.0619655,0.69917756,-0.8708589,-2180,1873
2.073892,0.67685854,-0.8737915,-2182,1807
2.0589957,0.6460304,-0.86541826,-2185,1741
2.017008,0.6075409,-0.8457773,-2187,1676
2.0146747,0.58169067,-0.84281003,-2189,1610
2.1729693,0.60038084,-0.907023,-2191,1544
2.2062523,0.58256835,-0.9191217,-2193,1479
2.2303956,0.56172365,-0.92750245,-2196,1413
2.633329,0.6309973,-1.0926831,-2197,1347
3.326914,0.7572705,-1.37854,-2199,1282
3.29875,0.7110486,-1.3645557,-2201,1216
3.2973313,0.6712088,-1.3615823,-2203,1150
3.2998695,0.6324501,-1.3607025,-2204,1084
3.3475535,0.6018854,-1.37849,-2206,1019
3.372215,0.5664276,-1.3867905,-2207,953
3.3050537,0.5162494,-1.3573855,-2208,887
2.9572997,0.4272377,-1.2134101,-2210,822
2.9984634,0.39816102,-1.2291577,-2211,756
3.1405952,0.38039398,-1.2861485,-2212,690
3.1675756,0.34685546,-1.2959839,-2213,624
3.171145,0.31042725,-1.2966138,-2214,559
3.1651716,0.2732025,-1.2929492,-2214,493
3.1957061,0.23884644,-1.3046802,-2215,427
3.1980293,0.20220642,-1.3052081,-2216,361
3.20939,0.16593903,-1.3089805,-2216,295
3.2063515,0.12890121,-1.3074116,-2216,230
3.2028863,0.0919696,-1.3056304,-2216,164
3.2036254,0.055223998,-1.3059473,-2217,98
3.2085721,0.018399352,-1.3079402,-2217,32
3.1807923,-0.018240051,-1.2966161,-2217,-32
3.152701,-0.05434616,-1.285188,-2217,-98
3.147345,-0.09037475,-1.2829895,-2216,-164
3.0953093,-0.1244371,-1.2621331,-2216,-230
3.218639,-0.16641724,-1.3127527,-2216,-295
3.2627292,-0.20629731,-1.331614,-2216,-361
3.2603593,-0.24367858,-1.3310754,-2215,-427
3.2712924,-0.28236237,-1.3362988,-2214,-493
3.2679386,-0.3199025,-1.3361907,-2214,-559
3.2642603,-0.35744262,-1.3355415,-2213,-624
3.2601495,-0.39487457,-1.3351088,-2212,-690
3.2601974,-0.43291625,-1.3364502,-2211,-756
3.2461524,-0.46896788,-1.3319293,-2210,-822
3.2363892,-0.505524,-1.329185,-2208,-887
3.2351332,-0.5434021,-1.3304169,-2207,-953
3.2472181,-0.5838452,-1.3371729,-2206,-1019
3.2361479,-0.6202373,-1.3344269,-2204,-1084
3.220121,-0.65549177,-1.3296995,-2203,-1150
3.2126563,-0.692491,-1.3289423,-2201,-1216
3.2139075,-0.731548,-1.3317146,-2199,-1282
3.210497,-0.7692981,-1.3321753,-2197,-1347
3.215187,-0.80974275,-1.3370247,-2196,-1413
3.2376306,-0.8549072,-1.3487924,-2193,-1479
3.2370985,-0.8943945,-1.351203,-2191,-1544
3.222588,-0.9304477,-1.3481232,-2189,-1610
3.203222,-0.96483916,-1.3431838,-2187,-1676
3.2058344,-1.0058625,-1.3474469,-2185,-1741
3.2035017,-1.0455304,-1.3497291,-2182,-1807
3.1874733,-1.0808182,-1.3462105,-2180,-1873
3.2413392,-1.1404419,-1.3723694,-2177,-1938
3.2764575,-1.1953249,-1.3913944,-2174,-2004
3.2807755,-1.2393631,-1.3967316,-2171,-2069
3.2626238,-1.2755734,-1.3932709,-2168,-2135
3.2483575,-1.3131952,-1.391545,-2166,-2201
3.2423236,-1.3541694,-1.3933905,-2163,-2266
3.2401342,-1.396951,-1.396951,-2159,-2332
3.2119849,-1.4285742,-1.3894684,-2156,-2397
3.2174358,-1.4751806,-1.3964517,-2153,-2463
3.205502,-1.5139774,-1.3960776,-2149,-2528
3.2009628,-1.5574081,-1.3997062,-2146,-2594
3.1880822,-1.5960281,-1.3990815,-2142,-2659
3.1826153,-1.6394757,-1.4024488,-2139,-2725
3.164897,-1.6757338,-1.3997499,-2134,-2790
3.1502137,-1.7146881,-1.3993378,-2131,-2855
3.1027145,-1.735308,-1.3842881,-2127,-2921
3.051059,-1.7525963,-1.3673546,-2123,-2987
3.0035963,-1.7712725,-1.3522803,-2119,-3052
3.003911,-1.8180418,-1.3587918,-2115,-3118
3.007579,-1.8675041,-1.3669552,-2111,-3183
3.038242,-1.9348297,-1.3875409,-2106,-3249
3.056,-1.9953314,-1.4026505,-2102,-3314
3.0419238,-2.035725,-1.4032471,-2097,-3379
3.0196729,-2.0706568,-1.4001367,-2092,-3443
2.9847605,-2.0981271,-1.3921573,-2088,-3510
2.9694643,-2.1377897,-1.3924965,-2083,-3575
2.9651,-2.1857092,-1.3980218,-2078,-3639
2.9367194,-2.2176406,-1.3933656,-2073,-3705
2.894197,-2.236962,-1.3810529,-2068,-3770
2.854463,-2.259353,-1.3710208,-2063,-3836
2.7755616,-2.2476926,-1.3410945,-2058,-3900
2.6999476,-2.238337,-1.3134015,-2053,-3965
2.6177773,-2.2215035,-1.282325,-2048,-4031
2.6011436,-2.2573974,-1.2822349,-2042,-4095
2.6005552,-2.3095791,-1.2911633,-2036,-4160
2.71019,-2.4630291,-1.3555717,-2031,-4226
2.703391,-2.5137742,-1.3625034,-2025,-4291
2.666648,-2.5346973,-1.3531226,-2019,-4354
2.6250732,-2.55271,-1.3425293,-2013,-4419
2.5702314,-2.5568023,-1.325108,-2007,-4484
2.515735,-2.5600343,-1.3076459,-2001,-4550
2.4712436,-2.5723493,-1.2952662,-1995,-4614
2.4075794,-2.5634887,-1.2727276,-1989,-4679
2.366664,-2.577594,-1.2621753,-1983,-4744
2.2945054,-2.5561585,-1.2346375,-1977,-4808
2.2013445,-2.5084813,-1.195334,-1970,-4873
2.183064,-2.5448437,-1.1965894,-1964,-4937
2.1703866,-2.5882063,-1.2010537,-1957,-5001
2.1213546,-2.5878556,-1.1854279,-1950,-5065
2.0696018,-2.583012,-1.1681076,-1943,-5129
2.006639,-2.5625472,-1.1442444,-1936,-5193
1.9731079,-2.5783203,-1.1370435,-1930,-5257
1.9225647,-2.5709596,-1.1198791,-1923,-5321
1.8792801,-2.5751266,-1.1080399,-1916,-5387
1.8568535,-2.6046567,-1.1073974,-1909,-5451
1.8584692,-2.6688135,-1.1211914,-1902,-5514
1.808429,-2.6590514,-1.1040039,-1894,-5578
1.7492652,-2.6376786,-1.08247,-1888,-5644
1.7311759,-2.673885,-1.0848346,-1880,-5707
1.7656622,-2.793981,-1.1207663,-1873,-5770
1.738114,-2.8184624,-1.117999,-1865,-5833
1.6939124,-2.819375,-1.1059778,-1858,-5900
1.6276687,-2.7776048,-1.0776182,-1850,-5962
1.5932268,-2.7883277,-1.0701054,-1842,-6025
1.5681213,-2.8202941,-1.0708008,-1835,-6092
1.5695904,-2.8969967,-1.0882932,-1827,-6155
1.5584083,-2.9532309,-1.0977939,-1819,-6217
0.4107263,0.7742566,-0.27969483,-1769,6205
0.2891878,0.53103346,-0.19386414,-1777,6142
0.2673378,0.47759324,-0.17623062,-1784,6076
0.27477783,0.47857788,-0.17848878,-1792,6013
0.2801941,0.47517943,-0.17916137,-1799,5947
0.29505616,0.48815918,-0.18609008,-1806,5885
0.30274,0.4887561,-0.18839782,-1814,5822
0.3439476,0.5411247,-0.2109581,-1821,5755
0.35487548,0.545065,-0.21491958,-1828,5693
0.3580542,0.5369568,-0.21416016,-1835,5630
0.40965134,0.5991504,-0.24174729,-1842,5563
0.44596007,0.63707155,-0.26010376,-1849,5500
0.4527417,0.63186646,-0.2610797,-1856,5437
0.4454892,0.6074831,-0.2540419,-1863,5374
0.358201,0.47726807,-0.20202759,-1870,5311
0.26548827,0.34528077,-0.14797546,-1876,5244
0.52373123,0.66576004,-0.28891936,-1883,5180
0.5130922,0.637531,-0.28018525,-1889,5117
0.504928,0.61328614,-0.27301025,-1896,5053
0.52369505,0.6218518,-0.28042907,-1903,4989
0.5365814,0.62286985,-0.28461915,-1909,4925
0.5557883,0.6307788,-0.29211274,-1916,4861
0.56612134,0.6275215,-0.2945459,-1921,4794
0.566494,0.61397415,-0.29217315,-1927,4730
0.6540897,0.69311124,-0.3344577,-1933,4665
0.63540804,0.65832,-0.3221591,-1939,4601
0.6657573,0.67434496,-0.33476487,-1945,4536
0.6897995,0.6831357,-0.34406677,-1951,4472
0.70705247,0.6851753,-0.35019362,-1957,4409
0.72822237,0.6898059,-0.35787094,-1963,4344
0.7426712,0.68765485,-0.36221543,-1969,4279
0.7152916,0.6473816,-0.34627533,-1974,4214
0.72236097,0.63896716,-0.3471512,-1979,4149
0.71869415,0.62126344,-0.34293395,-1984,4084
0.72881883,0.61609954,-0.34562287,-1990,4020
0.7790863,0.64343184,-0.36690673,-1995,3955
0.7898291,0.637229,-0.3694702,-2000,3889
0.7928978,0.6252899,-0.3687439,-2006,3825
0.84070647,0.6474533,-0.388472,-2010,3760
0.84010255,0.6321875,-0.3860254,-2016,3696
0.8470752,0.6222754,-0.38681152,-2020,3630
0.8803844,0.6316759,-0.3998863,-2025,3565
0.90660644,0.63476133,-0.4093341,-2029,3499
0.9521164,0.6507724,-0.4276547,-2034,3435
0.9788219,0.6525479,-0.4371512,-2038,3369
0.9897583,0.64384276,-0.43985412,-2043,3304
1.012539,0.6424219,-0.44777343,-2047,3239
1.0433465,0.6455252,-0.45918763,-2051,3174
1.046294,0.6310341,-0.458351,-2056,3109
1.057179,0.62129855,-0.46094665,-2060,3044
1.1085626,0.6346367,-0.48121583,-2064,2979
1.1767236,0.6559277,-0.50853515,-2068,2913
1.2126617,0.65791625,-0.52179563,-2071,2848
1.2239538,0.6460095,-0.5244226,-2075,2782
1.2517936,0.64250016,-0.5341078,-2078,2716
1.266954,0.6323442,-0.5386739,-2082,2652
1.3033187,0.6319107,-0.5519226,-2085,2586
1.4285678,0.67243105,-0.6025989,-2088,2520
1.4527277,0.66384614,-0.61072177,-2092,2455
1.5110468,0.6698538,-0.63312286,-2095,2390
1.5696963,0.67457795,-0.6555899,-2099,2325
1.6375091,0.6814209,-0.6814209,-2101,2259
1.7010851,0.68524337,-0.7056921,-2104,2194
1.7693222,0.6893463,-0.7317628,-2107,2128
1.8769852,0.70697784,-0.7742966,-2110,2063
1.9241083,0.69966966,-0.7913736,-2113,1998
1.9801483,0.6944046,-0.81209564,-2115,1932
2.0625787,0.69712234,-0.8438437,-2118,1867
2.0611243,0.67058027,-0.8412231,-2121,1802
2.0282593,0.63436157,-0.8259155,-2123,1736
2.0083008,0.6030121,-0.8158722,-2126,1671
1.992369,0.573497,-0.8075539,-2128,1605
2.2141218,0.60993105,-0.89548826,-2130,1540
2.2341797,0.5879858,-0.90161866,-2131,1474
2.2404613,0.5624048,-0.90252686,-2134,1409
2.3052413,0.55081606,-0.9270361,-2136,1343
3.3509316,0.7603418,-1.3451248,-2137,1278
3.3544881,0.7208511,-1.3443142,-2139,1212
3.3075027,0.6711693,-1.3232002,-2140,1147
3.3144722,0.6333351,-1.3241959,-2142,1081
3.4127266,0.61181486,-1.3617485,-2144,1016
3.451333,0.57809085,-1.3753467,-2145,950
3.420747,0.5327747,-1.3613964,-2146,885
3.2053638,0.46165648,-1.2740954,-2147,819
3.1501832,0.41697434,-1.2510272,-2148,754
3.20526,0.38704985,-1.271705,-2149,688
3.2140145,0.3508087,-1.2739617,-2150,622
3.226773,0.31491348,-1.2782658,-2151,557
3.2067933,0.27601442,-1.269624,-2152,491
3.223559,0.2403061,-1.2754463,-2153,426
3.225998,0.20340118,-1.2756584,-2153,360
3.2233682,0.16615082,-1.2739289,-2153,295
3.2203097,0.1291127,-1.2723047,-2154,229
3.2587686,0.09327271,-1.2870991,-2154,163
3.268817,0.056101836,-1.2910931,-2154,98
3.2319367,0.018452454,-1.2765068,-2155,32
3.2226362,-0.018399352,-1.2728333,-2155,-32
3.1758208,-0.05450577,-1.2543622,-2154,-98
3.1657937,-0.09061157,-1.2503773,-2154,-163
3.1599,-0.12669067,-1.2484375,-2154,-229
3.2791038,-0.16902374,-1.2959564,-2153,-295
3.290982,-0.20749848,-1.3013551,-2153,-360
3.293132,-0.24549255,-1.302974,-2153,-426
3.294841,-0.28359282,-1.3044837,-2152,-491
3.2869568,-0.32078704,-1.3021072,-2151,-557
3.2833817,-0.35838014,-1.3014572,-2150,-622
3.2791564,-0.3959732,-1.3010238,-2149,-688
3.2747147,-0.43345794,-1.3004822,-2148,-754
3.2698395,-0.47094268,-1.2997239,-2147,-819
3.255227,-0.50699526,-1.2955225,-2146,-885
3.2539828,-0.5450351,-1.2967032,-2145,-950
3.2753015,-0.58717805,-1.306913,-2144,-1016
3.2550402,-0.62197876,-1.3004516,-2142,-1081
3.2527578,-0.6600603,-1.301299,-2140,-1147
3.2498026,-0.6983551,-1.3023615,-2139,-1212
3.25558,-0.73870605,-1.3068489,-2137,-1278
3.256323,-0.77806824,-1.3095069,-2136,-1343
3.2477655,-0.8152602,-1.3083,-2134,-1409
3.265686,-0.8594551,-1.3178902,-2131,-1474
3.2605526,-0.89819455,-1.3187109,-2130,-1540
3.254949,-0.9369266,-1.3193071,-2128,-1605
3.2445214,-0.97419953,-1.3180869,-2126,-1671
3.2292023,-1.0099704,-1.3149445,-2123,-1736
3.2268786,-1.0498548,-1.3170117,-2121,-1802
3.2506592,-1.0986768,-1.3299121,-2118,-1867
3.3662522,-1.1804879,-1.3805625,-2115,-1932
3.3792427,-1.2288048,-1.3898611,-2113,-1998
3.3698432,-1.2692719,-1.3901324,-2110,-2063
3.3691025,-1.3126373,-1.3934059,-2107,-2128
3.3459,-1.3478197,-1.3880408,-2104,-2194
3.3310385,-1.3861536,-1.3861536,-2101,-2259
3.319522,-1.4265665,-1.3864114,-2099,-2325
3.312351,-1.4683801,-1.3878626,-2095,-2390
3.2919998,-1.5043297,-1.3839455,-2092,-2455
3.296695,-1.5517639,-1.3906128,-2088,-2520
3.291931,-1.5960841,-1.3940496,-2085,-2586
3.2740095,-1.6340775,-1.3920186,-2082,-2652
3.260486,-1.6734887,-1.3911645,-2078,-2716
3.2418237,-1.7110523,-1.3890113,-2075,-2782
3.1693635,-1.7195032,-1.3637439,-2071,-2848
3.1583588,-1.7605282,-1.3649225,-2068,-2913
2.9967737,-1.7156112,-1.3008691,-2064,-2979
2.9818902,-1.7524413,-1.3001511,-2060,-3044
2.986548,-1.8012276,-1.3083198,-2056,-3109
2.9906614,-1.8503413,-1.316221,-2051,-3174
3.069259,-1.9473413,-1.3573133,-2047,-3239
3.079248,-2.0030663,-1.368435,-2043,-3304
3.0768545,-2.0512362,-1.3741525,-2038,-3369
3.0459983,-2.0819426,-1.3681474,-2034,-3435
3.0040941,-2.1033194,-1.3563528,-2029,-3499
2.9955935,-2.1493387,-1.3606522,-2025,-3565
2.9874527,-2.194632,-1.3642013,-2020,-3630
2.9703627,-2.2352343,-1.3648754,-2016,-3696
2.923873,-2.2517624,-1.3510574,-2010,-3760
2.7806742,-2.1928773,-1.2931763,-2006,-3825
2.7497754,-2.218501,-1.2863038,-2000,-3889
2.6452699,-2.1846757,-1.2457764,-1995,-3955
2.6208756,-2.2155304,-1.2428802,-1990,-4020
2.6079347,-2.2543867,-1.2444088,-1984,-4084
2.6040232,-2.3033986,-1.2514377,-1979,-4149
2.6029634,-2.3558373,-1.2601044,-1974,-4214
2.704705,-2.504343,-1.319138,-1969,-4279
2.6769865,-2.5357654,-1.3155538,-1963,-4344
2.6353774,-2.5538354,-1.3052672,-1957,-4409
2.5716796,-2.546836,-1.2827344,-1951,-4472
2.5106668,-2.543052,-1.2624466,-1945,-4536
2.4695754,-2.5586252,-1.252103,-1939,-4601
2.4188366,-2.5631392,-1.2368312,-1933,-4665
2.368393,-2.5668976,-1.2215149,-1927,-4730
2.311926,-2.5626717,-1.2028662,-1921,-4794
2.2668667,-2.572727,-1.191426,-1916,-4861
2.2172532,-2.573813,-1.1760986,-1909,-4925
2.1739435,-2.581408,-1.1641067,-1903,-4989
2.106872,-2.5590093,-1.1391678,-1896,-5053
2.070164,-2.5722349,-1.1304584,-1889,-5117
2.0188522,-2.5663376,-1.1137116,-1883,-5180
1.9738476,-2.5670874,-1.1001654,-1876,-5244
1.9331481,-2.5757325,-1.0903076,-1870,-5311
1.8912277,-2.5789375,-1.0784798,-1863,-5374
1.8551368,-2.5891113,-1.06979,-1856,-5437
1.8545413,-2.6492853,-1.081651,-1849,-5500
1.8206726,-2.6628907,-1.0744324,-1842,-5563
1.800802,-2.7005768,-1.0770996,-1835,-5630
1.7976904,-2.7611322,-1.0887167,-1828,-5693
1.7655977,-2.7777736,-1.0829183,-1821,-5755
1.7538905,-2.831554,-1.0914618,-1814,-5822
1.7039493,-2.8191192,-1.0746703,-1806,-5885
1.6570098,-2.810113,-1.0595233,-1799,-5947
1.6036602,-2.7930796,-1.0416974,-1792,-6013
1.5366112,-2.745123,-1.0129429,-1784,-6076
1.5666236,-2.8767798,-1.0502247,-1777,-6142
1.5491525,-2.9202938,-1.0549359,-1769,-6205
0.0,0.0,-0.0,0,0
0.25480407,0.46472442,-0.16474868,-1726,6126
0.2644127,0.47004592,-0.16840683,-1734,6064
0.26972336,0.4667871,-0.16906205,-1741,5997
0.27710265,0.46775207,-0.17125396,-1748,5935
0.28699097,0.47268373,-0.17496642,-1755,5873
0.29483873,0.47320586,-0.17711747,-1762,5807
0.30498108,0.47780854,-0.18087143,-1769,5745
0.34688857,0.5298407,-0.20286071,-1776,5678
0.34457856,0.5139618,-0.1990387,-1783,5616
0.4119626,0.6001776,-0.23516373,-1790,5553
0.44336426,0.63016754,-0.24983734,-1796,5487
0.45842284,0.63657534,-0.2553955,-1803,5424
0.4426645,0.6006563,-0.24389908,-1810,5361
0.27173918,0.36033782,-0.14811859,-1816,5297
0.26999176,0.3495305,-0.1454544,-1822,5231
0.5327591,0.67416537,-0.28408295,-1829,5168
0.5071518,0.6273834,-0.26772612,-1835,5104
0.4534378,0.548378,-0.23703003,-1842,5041
0.52974916,0.62636477,-0.27429855,-1848,4977
0.53685015,0.6199765,-0.2750905,-1854,4911
0.56549376,0.63855284,-0.28712767,-1860,4847
0.5628479,0.6214554,-0.2832605,-1866,4783
0.5663281,0.6114185,-0.28251952,-1872,4719
0.6478067,0.6838803,-0.32041138,-1878,4655
0.6354605,0.65595734,-0.3116931,-1884,4590
0.675851,0.682139,-0.32880324,-1890,4526
0.70348066,0.69420046,-0.3395102,-1895,4461
0.72121274,0.69585145,-0.345354,-1901,4397
0.74940825,0.70689666,-0.35609284,-1906,4332
0.74320066,0.68533814,-0.35050598,-1912,4268
0.736647,0.6640045,-0.34488374,-1917,4203
0.7332619,0.6460538,-0.34080964,-1922,4138
0.7114517,0.6130692,-0.3286099,-1928,4075
0.72898895,0.613866,-0.33439606,-1933,4010
0.78673095,0.6473144,-0.35842896,-1938,3944
0.79381716,0.6381189,-0.3592859,-1943,3879
0.8005737,0.6290552,-0.3602417,-1948,3815
0.83740234,0.6426465,-0.3744043,-1952,3750
0.8482475,0.6356621,-0.37689972,-1957,3684
0.8625764,0.63154465,-0.38118514,-1962,3621
0.8734039,0.6241681,-0.38366455,-1966,3555
0.903208,0.63034606,-0.39468932,-1971,3491
0.94906676,0.64622617,-0.41237548,-1975,3425
0.9834178,0.653582,-0.42512512,-1980,3360
0.99042666,0.6422836,-0.4260826,-1984,3296
1.0134475,0.64072955,-0.43361205,-1988,3230
1.0483438,0.64632475,-0.44643462,-1992,3165
1.0553,0.6342914,-0.44731414,-1996,3100
1.0500139,0.6150143,-0.44306168,-2000,3035
1.1300887,0.64478076,-0.47474122,-2004,2970
1.1822168,0.6568506,-0.49447265,-2008,2905
1.2182434,0.6588165,-0.50739133,-2012,2840
1.24617,0.6557007,-0.5168152,-2015,2775
1.2658442,0.64769393,-0.5228618,-2018,2709
1.2980772,0.6456203,-0.534017,-2022,2644
1.3347162,0.6448645,-0.5469342,-2025,2578
1.3840176,0.64960235,-0.5652371,-2028,2514
1.4678894,0.6685156,-0.5972339,-2031,2448
1.513619,0.6688234,-0.6138287,-2035,2383
1.5854052,0.6791626,-0.64092284,-2038,2318
1.6448151,0.6823486,-0.6625763,-2040,2253
1.7086409,0.6862028,-0.6862028,-2043,2188
1.7772093,0.69034,-0.71157926,-2046,2122
1.8898339,0.70941114,-0.75446045,-2049,2057
1.9237442,0.6974823,-0.76609695,-2052,1992
2.0152478,0.704707,-0.80024046,-2054,1927
2.0628273,0.69498825,-0.8168861,-2056,1861
2.0568502,0.6670999,-0.8126028,-2059,1796
2.0192957,0.6296246,-0.7959796,-2062,1731
1.9991602,0.5984686,-0.78623015,-2064,1666
1.992067,0.5717307,-0.78175277,-2066,1601
2.2192402,0.6095947,-0.8689728,-2068,1535
2.2393432,0.58770674,-0.8750267,-2070,1470
2.2591462,0.5655844,-0.88116574,-2072,1405
2.2789476,0.54284686,-0.88708556,-2073,1339
3.39738,0.76846313,-1.320256,-2075,1274
3.268428,0.700206,-1.2679641,-2077,1209
3.275847,0.6627846,-1.268837,-2078,1143
3.3425171,0.63684446,-1.2930176,-2080,1078
3.5286026,0.6307011,-1.3632226,-2082,1013
3.539883,0.59121096,-1.3658203,-2083,948
3.5230072,0.547079,-1.3576268,-2084,882
3.2189574,0.4622937,-1.2389429,-2085,817
3.2098413,0.42371383,-1.2343428,-2086,751
3.2142823,0.3870209,-1.2349772,-2087,686
3.2136567,0.3498224,-1.2336175,-2088,621
3.2173524,0.3130768,-1.2339343,-2089,555
3.2112122,0.27553254,-1.2308944,-2090,490
3.2186074,0.23923935,-1.2329947,-2090,425
3.225694,0.20273438,-1.2349902,-2091,359
3.2323644,0.16622864,-1.2371979,-2091,294
3.2340565,0.12921844,-1.2371979,-2091,228
3.272567,0.09337967,-1.251587,-2092,163
3.2873242,0.056289062,-1.2571582,-2092,98
3.2644033,0.018665314,-1.2484429,-2092,32
3.2317126,-0.018478394,-1.2359406,-2092,-32
3.2126124,-0.055009767,-1.2285864,-2092,-98
3.2165458,-0.09178116,-1.2301619,-2092,-163
3.2667236,-0.13052368,-1.2496948,-2091,-228
3.3303149,-0.17126587,-1.2746887,-2091,-294
3.3375678,-0.20976563,-1.2778223,-2091,-359
3.3397129,-0.24824113,-1.2793881,-2090,-425
3.3089447,-0.2839183,-1.2683564,-2090,-490
3.2963912,-0.32076797,-1.2642478,-2089,-555
3.292605,-0.3584163,-1.2639232,-2088,-621
3.2977703,-0.39707336,-1.2670546,-2087,-686
3.2932136,-0.43471938,-1.2664037,-2086,-751
3.2929566,-0.47292113,-1.2674243,-2085,-817
3.2782898,-0.5090774,-1.2633225,-2084,-882
3.277157,-0.547332,-1.2644508,-2083,-948
3.3031769,-0.5904086,-1.2761328,-2082,-1013
3.292012,-0.6272218,-1.2734802,-2080,-1078
3.2804284,-0.66371155,-1.2706115,-2078,-1143
3.286713,-0.70412326,-1.2750577,-2077,-1209
3.2788138,-0.74164426,-1.2741799,-2075,-1274
3.2660367,-0.7779721,-1.2713122,-2073,-1339
3.2662354,-0.8177124,-1.2739747,-2072,-1405
3.2798462,-0.8607826,-1.2816048,-2070,-1470
3.279243,-0.9007629,-1.2840309,-2068,-1535
3.2646515,-0.93696713,-1.2811569,-2066,-1601
3.2542384,-0.97418886,-1.2798276,-2064,-1666
3.2478495,-1.0126927,-1.2802593,-2062,-1731
3.285618,-1.0656271,-1.2980539,-2059,-1796
3.402556,-1.1463569,-1.347423,-2056,-1861
3.473651,-1.2146924,-1.3793619,-2054,-1927
3.4865112,-1.264087,-1.3884412,-2052,-1992
3.481504,-1.3068967,-1.3898877,-2049,-2057
3.4670866,-1.3467566,-1.3881916,-2046,-2122
3.456411,-1.3881203,-1.3881203,-2043,-2188
3.4238124,-1.4203626,-1.3792049,-2040,-2253
3.420684,-1.4653671,-1.3828607,-2038,-2318
3.4174342,-1.510063,-1.3858966,-2035,-2383
3.3880935,-1.5430274,-1.3784992,-2031,-2448
3.404853,-1.5981015,-1.3905526,-2028,-2514
3.4001472,-1.642772,-1.3932976,-2025,-2578
3.3775213,-1.6798663,-1.3894812,-2022,-2644
3.3546963,-1.7164959,-1.3856701,-2018,-2709
3.2691195,-1.7201215,-1.3557785,-2015,-2775
3.1013587,-1.6771905,-1.291698,-2012,-2840
3.0006962,-1.6672145,-1.2550677,-2008,-2905
2.9496539,-1.6829475,-1.239126,-2004,-2970
2.9554446,-1.7310635,-1.2470732,-2000,-3035
2.9564512,-1.7769842,-1.2531625,-1996,-3100
2.9449658,-1.8156298,-1.2541064,-1992,-3165
2.9171393,-1.844296,-1.2481226,-1988,-3230
2.9002533,-1.8807907,-1.2476921,-1984,-3296
2.9071555,-1.9321029,-1.2567444,-1980,-3360
2.932772,-1.9969449,-1.2743078,-1975,-3425
3.0145533,-2.1038473,-1.3173178,-1971,-3491
3.095221,-2.2119641,-1.3596534,-1966,-3555
3.0817158,-2.2563114,-1.3618553,-1962,-3621
2.9330513,-2.1979783,-1.3032355,-1957,-3684
2.7402496,-2.1029458,-1.2251712,-1952,-3750
2.720468,-2.1376226,-1.2241547,-1948,-3815
2.726909,-2.1920567,-1.2342136,-1943,-3879
2.666144,-2.1936767,-1.2146759,-1938,-3944
2.6128118,-2.200193,-1.1985284,-1933,-4010
2.6169982,-2.2551086,-1.2087561,-1928,-4075
2.6177802,-2.3064432,-1.2167069,-1922,-4138
2.6063273,-2.349311,-1.2202315,-1917,-4203
2.6289856,-2.4243035,-1.239874,-1912,-4268
2.6779313,-2.5260208,-1.2724602,-1906,-4332
2.643313,-2.5503612,-1.265755,-1901,-4397
2.591771,-2.5575805,-1.2508271,-1895,-4461
2.5269501,-2.5504606,-1.2293679,-1890,-4526
2.4825764,-2.5626519,-1.2177026,-1884,-4590
2.4414825,-2.5774384,-1.2075806,-1878,-4655
2.3747168,-2.5637887,-1.1846558,-1872,-4719
2.3149903,-2.5560424,-1.1650488,-1866,-4783
2.2776833,-2.571949,-1.1564865,-1860,-4847
2.2342896,-2.580249,-1.1448853,-1854,-4911
2.1924877,-2.5923536,-1.1352472,-1848,-4977
2.116043,-2.5590973,-1.1061401,-1842,-5041
2.0823057,-2.5759625,-1.099252,-1835,-5104
2.0427337,-2.5849214,-1.0892463,-1829,-5168
1.9799396,-2.5632236,-1.0666656,-1822,-5231
1.9364994,-2.567881,-1.0555398,-1816,-5297
1.8947167,-2.570962,-1.0439502,-1810,-5361
1.8531396,-2.5733075,-1.0324169,-1803,-5424
1.9540869,-2.777405,-1.1011349,-1796,-5487
1.8713334,-2.726297,-1.0682274,-1790,-5553
1.8527724,-2.763533,-1.0702157,-1783,-5616
1.8074721,-2.7607489,-1.0570111,-1776,-5678
1.7914435,-2.8066232,-1.0624297,-1769,-5745
1.7564323,-2.8190126,-1.0551356,-1762,-5807
1.7120496,-2.8198028,-1.0437653,-1755,-5873
1.6747696,-2.8270278,-1.0350349,-1748,-5935
1.5992447,-2.7676759,-1.0024033,-1741,-5997
1.520958,-2.703804,-0.96871185,-1734,-6064
1.4714361,-2.6836789,-0.9513866,-1726,-6126
1.5553528,-2.9164186,-1.0230695,-1719,-6192
0.0,0.0,-0.0,0,0
0.2818979,0.5115414,-0.17593719,-1676,6114
0.2664473,0.47061494,-0.16357894,-1682,6048
0.273815,0.47164857,-0.16572236,-1690,5986
0.28125304,0.47259218,-0.16786042,-1697,5924
0.29404572,0.4814096,-0.17288758,-1703,5858
0.30165818,0.48205748,-0.17504272,-1710,5796
0.2993457,0.46632934,-0.17124939,-1717,5730
0.33315796,0.5067714,-0.18822494,-1724,5667
0.33852586,0.502915,-0.18896133,-1731,5605
0.37670577,0.54593813,-0.20751587,-1737,5539
0.42104417,0.5961388,-0.22928055,-1744,5476
0.4497171,0.62219954,-0.24217804,-1750,5414
0.45390624,0.61291504,-0.24145508,-1756,5347
0.33380798,0.44057557,-0.17569214,-1763,5285
0.3034973,0.3915393,-0.15807252,-1769,5221
0.60394406,0.76085997,-0.31103027,-1775,5155
0.53408694,0.6577765,-0.2723398,-1781,5092
0.51072145,0.61500365,-0.25791138,-1788,5029
0.5296265,0.62361026,-0.26494446,-1794,4965
0.5647412,0.64955735,-0.27960876,-1799,4899
0.58120483,0.6536694,-0.2851697,-1805,4835
0.5690427,0.6258627,-0.2767398,-1811,4772
0.58871734,0.6331787,-0.28384736,-1817,4708
0.769014,0.80878067,-0.3676178,-1823,4644
0.6321104,0.6500925,-0.2996907,-1828,4580
0.6692505,0.6730652,-0.3147583,-1834,4516
0.7002232,0.6885997,-0.32669082,-1839,4452
0.73164123,0.703461,-0.33871797,-1845,4387
0.7358276,0.69172347,-0.3380777,-1850,4323
0.7433354,0.68320817,-0.33898774,-1855,4258
0.74020386,0.66506195,-0.3351105,-1861,4193
0.7367679,0.6470645,-0.33117598,-1866,4129
0.72587585,0.623082,-0.3240088,-1871,4064
0.7507919,0.6298503,-0.33285004,-1875,3999
0.7906201,0.6481384,-0.3481787,-1880,3934
0.79404604,0.635952,-0.34738693,-1885,3869
0.8007385,0.626963,-0.34830552,-1890,3806
0.84519196,0.64637375,-0.36532974,-1894,3740
0.85608673,0.63934934,-0.36778107,-1899,3675
0.8628458,0.6296246,-0.36871216,-1904,3611
0.89286864,0.63600343,-0.3792798,-1908,3546
0.9076355,0.6309888,-0.38329926,-1912,3480
0.96518296,0.6551138,-0.40553588,-1916,3416
0.9841919,0.6517029,-0.4112625,-1920,3351
0.9911728,0.6404495,-0.41217804,-1925,3286
1.0339687,0.6517682,-0.4279254,-1929,3222
1.0532612,0.64708436,-0.43364167,-1933,3156
1.0561707,0.6326271,-0.4328627,-1937,3092
1.0507627,0.61338776,-0.42871398,-1941,3027
1.1188518,0.63630295,-0.454514,-1944,2962
1.1752075,0.6508347,-0.4753189,-1948,2897
1.2195419,0.6574805,-0.4912262,-1952,2833
1.2475367,0.6543819,-0.5004016,-1955,2767
1.2882233,0.65718126,-0.5146335,-1958,2702
1.3080018,0.6486084,-0.5205139,-1962,2637
1.3701969,0.6601352,-0.5431305,-1965,2572
1.3987145,0.65433836,-0.55233884,-1968,2507
1.4570984,0.66177976,-0.5735321,-1971,2442
1.5289116,0.6734253,-0.5996475,-1974,2377
1.583714,0.6763092,-0.6191776,-1977,2312
1.6475998,0.68142045,-0.641922,-1980,2246
1.702977,0.6818573,-0.6615051,-1982,2182
1.767245,0.6844777,-0.6844777,-1985,2117
1.8935196,0.7087494,-0.7312546,-1988,2052
1.9409218,0.70147824,-0.74743074,-1990,1987
1.9928759,0.6947113,-0.7653471,-1993,1921
2.0581896,0.69149137,-0.78856385,-1996,1857
2.061191,0.66642976,-0.7876308,-1998,1791
2.0324035,0.6318471,-0.77486116,-2000,1726
1.9940948,0.5952542,-0.7586348,-2002,1662
1.9191666,0.5492134,-0.72852325,-2004,1596
2.21949,0.6079391,-0.8407669,-2006,1531
2.2396233,0.58615965,-0.8465915,-2008,1466
2.264165,0.5650554,-0.8541429,-2010,1401
2.2883506,0.5436113,-0.8618582,-2012,1336
3.5030594,0.7902603,-1.3171784,-2014,1271
3.259114,0.6961762,-1.2231293,-2015,1205
3.2939758,0.6648041,-1.2345581,-2017,1141
3.4255593,0.6507599,-1.2819062,-2018,1075
3.635624,0.64810777,-1.3587806,-2020,1010
3.651846,0.6079788,-1.3628356,-2020,945
3.644317,0.56428987,-1.3583734,-2022,880
3.4505012,0.49419203,-1.2849673,-2023,815
3.237118,0.4260791,-1.2041088,-2024,749
3.2369208,0.38866806,-1.2030151,-2025,684
3.2269611,0.35024476,-1.1982446,-2026,619
3.2212143,0.31259307,-1.1950973,-2026,554
3.2056808,0.27435395,-1.1886926,-2027,489
3.208507,0.23782226,-1.1891114,-2028,423
3.206234,0.20099716,-1.187587,-2028,358
3.2127988,0.1647589,-1.1897393,-2029,293
3.2097878,0.1279358,-1.1879005,-2029,228
3.211042,0.09135284,-1.1881096,-2029,162
3.2258399,0.055114746,-1.1935229,-2030,97
3.2449114,0.018478394,-1.2006732,-2030,32
3.2402222,-0.01845169,-1.1989381,-2030,-32
3.2445948,-0.05543518,-1.200462,-2030,-97
3.2766693,-0.093219906,-1.2123921,-2029,-162
3.3503623,-0.13353881,-1.2399254,-2029,-228
3.3673503,-0.17268462,-1.2469717,-2029,-293
3.346653,-0.20979996,-1.239598,-2028,-358
3.3114038,-0.24544922,-1.227246,-2028,-423
3.308487,-0.28315246,-1.2268139,-2027,-489
3.3005776,-0.32029465,-1.2245418,-2026,-554
3.2969096,-0.35783675,-1.2242181,-2026,-619
3.2928102,-0.3953789,-1.2237866,-2025,-684
3.2929304,-0.4334253,-1.2248694,-2024,-749
3.292605,-0.4715776,-1.2261667,-2023,-815
3.2780306,-0.5075737,-1.2218448,-2022,-880
3.28157,-0.5463333,-1.224652,-2020,-945
3.289154,-0.586344,-1.2292907,-2020,-1010
3.2918563,-0.62536013,-1.2318722,-2018,-1075
3.2847748,-0.66294706,-1.2311096,-2017,-1141
3.272885,-0.6991177,-1.2282975,-2015,-1205
3.2832596,-0.74067533,-1.2345319,-2014,-1271
3.2840798,-0.78015274,-1.2368784,-2012,-1336
3.2618554,-0.8140436,-1.2305157,-2010,-1401
3.289021,-0.8608105,-1.2432703,-2008,-1466
3.2884688,-0.9007425,-1.2457078,-2006,-1531
3.278388,-0.93818575,-1.2444892,-2004,-1596
3.2769775,-0.97820556,-1.2466955,-2002,-1662
3.2976081,-1.0251824,-1.257225,-2000,-1726
3.4204147,-1.1058975,-1.3070228,-1998,-1791
3.5060503,-1.1779301,-1.3432895,-1996,-1857
3.568535,-1.243982,-1.3704658,-1993,-1921
3.5635147,-1.2879077,-1.372276,-1990,-1987
3.6020908,-1.3482721,-1.3910843,-1988,-2052
3.6002684,-1.3944322,-1.3944322,-1985,-2117
3.5849848,-1.435397,-1.3925531,-1982,-2182
3.569075,-1.4761113,-1.3905487,-1980,-2246
3.556866,-1.518924,-1.3906119,-1977,-2312
3.540184,-1.5593115,-1.3884796,-1974,-2377
3.518464,-1.5980035,-1.3849113,-1971,-2442
3.5309014,-1.6518054,-1.3943188,-1968,-2507
3.5251818,-1.6983664,-1.397342,-1965,-2572
3.4640949,-1.7177662,-1.3785224,-1962,-2637
3.369522,-1.7189463,-1.3460934,-1958,-2702
3.1334448,-1.6436146,-1.2568616,-1955,-2767
3.0778916,-1.6593555,-1.2397614,-1952,-2833
3.0472925,-1.6876029,-1.2324936,-1948,-2897
2.975408,-1.6921463,-1.2087076,-1944,-2962
2.973088,-1.7355545,-1.213028,-1941,-3027
2.9661803,-1.7766883,-1.2156643,-1937,-3092
2.9547591,-1.8152939,-1.2165139,-1933,-3156
2.9382277,-1.8521289,-1.2160351,-1929,-3222
2.9457655,-1.903416,-1.2249931,-1925,-3286
2.9525757,-1.9551086,-1.2337875,-1920,-3351
2.965886,-2.0130825,-1.2461609,-1916,-3416
2.947876,-2.0493653,-1.2449036,-1912,-3480
2.9518545,-2.1026492,-1.2539121,-1908,-3546
2.9359663,-2.1423953,-1.2546002,-1904,-3611
2.9205437,-2.1811433,-1.2546867,-1899,-3675
2.7609603,-2.1114876,-1.1934105,-1894,-3740
2.774652,-2.1725,-1.2069191,-1890,-3806
2.7440753,-2.1977317,-1.2005047,-1885,-3869
2.708606,-2.2204742,-1.1928345,-1880,-3934
2.6332123,-2.2090402,-1.1673871,-1875,-3999
2.6196213,-2.2486472,-1.1693188,-1871,-4064
2.6267376,-2.3069258,-1.1807144,-1866,-4129
2.6118622,-2.3467185,-1.1824613,-1861,-4193
2.6313376,-2.4184928,-1.1999848,-1855,-4258
2.6738524,-2.5135868,-1.2285076,-1850,-4323
2.6427975,-2.5410063,-1.2234999,-1845,-4387
2.594547,-2.5514781,-1.2104921,-1839,-4452
2.5364594,-2.5509171,-1.1929339,-1834,-4516
2.488728,-2.5595264,-1.179934,-1828,-4580
2.4510276,-2.5777733,-1.1716839,-1823,-4644
2.3969207,-2.577942,-1.1556642,-1817,-4708
2.3241236,-2.5561922,-1.13028,-1811,-4772
2.2774384,-2.5613894,-1.1174312,-1805,-4835
2.2433643,-2.5802858,-1.1107111,-1799,-4899
2.1739318,-2.5597024,-1.0875046,-1794,-4965
2.118886,-2.551533,-1.0700252,-1788,-5029
2.0883398,-2.57198,-1.0648792,-1781,-5092
2.0486732,-2.5809565,-1.0550635,-1775,-5155
1.990242,-2.5675943,-1.0365909,-1769,-5221
1.9452949,-2.567492,-1.023861,-1763,-5285
1.8978955,-2.562751,-1.0095841,-1756,-5347
1.8687003,-2.585413,-1.0063175,-1750,-5414
1.8437881,-2.6105423,-1.004039,-1744,-5476
1.8943694,-2.745401,-1.043551,-1737,-5539
1.8552283,-2.7561328,-1.0355676,-1731,-5605
1.8100708,-2.753325,-1.0226395,-1724,-5667
1.7986548,-2.8019962,-1.0289726,-1717,-5730
1.7516453,-2.7991743,-1.0164245,-1710,-5796
1.716928,-2.8109426,-1.0094876,-1703,-5858
1.6679529,-2.802677,-0.99548525,-1697,-5924
1.6188712,-2.7885187,-0.97979707,-1690,-5986
1.5279455,-2.6987476,-0.9380457,-1682,-6048
1.4741874,-2.67511,-0.920065,-1676,-6114
1.4887161,-2.7721198,-0.9433548,-1668,-6176
0.37178406,0.6887506,-0.22717926,-1618,6164
0.30232698,0.5458786,-0.18195954,-1625,6102
0.27525574,0.48379943,-0.1630011,-1632,6036
0.2803534,0.4806311,-0.1636737,-1639,5974
0.29312393,0.48959306,-0.16854218,-1645,5909
0.30078736,0.49030152,-0.1706543,-1652,5847
0.30374634,0.48260224,-0.16984954,-1658,5781
0.3114441,0.48314208,-0.17197266,-1665,5719
0.33534774,0.50735277,-0.18264389,-1671,5653
0.33535004,0.49556732,-0.18047333,-1678,5591
0.36786348,0.53105164,-0.19565277,-1684,5528
0.38766176,0.5461273,-0.20358276,-1690,5463
0.42438796,0.58424485,-0.22040802,-1697,5400
0.42203125,0.5678723,-0.21681947,-1703,5338
0.35026413,0.46011978,-0.17783691,-1709,5271
0.34341612,0.44103515,-0.17258285,-1715,5209
0.5563832,0.69859636,-0.2768077,-1722,5146
0.552161,0.677119,-0.2717244,-1727,5080
0.45242798,0.542489,-0.22050048,-1733,5017
0.520155,0.6099023,-0.2511438,-1739,4954
0.57682496,0.6614465,-0.27596068,-1745,4890
0.61284333,0.6865553,-0.29028335,-1750,4824
0.63951707,0.7006418,-0.30027938,-1756,4761
0.6502991,0.6967468,-0.30273438,-1762,4697
0.66767347,0.69960904,-0.30820465,-1767,4633
0.6452655,0.6612506,-0.29545808,-1773,4570
0.65579224,0.65716094,-0.29784393,-1778,4505
0.7040135,0.6892946,-0.31696242,-1783,4439
0.73552704,0.704212,-0.32862794,-1788,4375
0.74660796,0.69897306,-0.33108217,-1793,4311
0.74717057,0.6839232,-0.32891235,-1798,4246
0.72627103,0.6499466,-0.3174034,-1803,4182
0.7261859,0.6352733,-0.31514314,-1808,4117
0.7186482,0.6145267,-0.3097229,-1813,4053
0.76542205,0.63971555,-0.3276764,-1818,3988
0.79053575,0.64615476,-0.3364296,-1823,3926
0.80500853,0.6429274,-0.34035385,-1828,3861
0.81202817,0.6335899,-0.34114853,-1832,3796
0.8340781,0.635692,-0.3482463,-1836,3731
0.85624695,0.63734436,-0.35533905,-1841,3666
0.8630104,0.62766266,-0.3562317,-1846,3602
0.89310884,0.63410795,-0.36650667,-1850,3537
0.9351196,0.64804685,-0.38155517,-1853,3472
0.9655545,0.65336245,-0.39203247,-1858,3408
0.97671586,0.6447493,-0.39437988,-1862,3342
0.99157745,0.6387996,-0.39844713,-1866,3279
