2.402214,-2.2959123,0.7876761,1333,-4370
2.401776,-2.3461852,0.79332733,1329,-4432
2.4064388,-2.4044123,0.80143523,1325,-4497
2.3976562,-2.448252,0.8046973,1321,-4559
2.3938317,-2.5001519,0.8104202,1317,-4624
2.376913,-2.5370665,0.811225,1313,-4686
2.3485868,-2.5641944,0.8088281,1309,-4751
2.31463,-2.5826514,0.8038464,1304,-4813
2.2793107,-2.6016145,0.799205,1301,-4877
2.2452338,-2.6191332,0.79414487,1296,-4939
2.2910743,-2.7342772,0.8184961,1292,-5004
2.276023,-2.7791567,0.8215004,1288,-5068
2.2800896,-2.8458605,0.8307941,1283,-5129
2.2423484,-2.864091,0.8258408,1279,-5194
2.1852698,-2.8536034,0.8128412,1274,-5255
1.9459891,-2.601156,0.73209596,1270,-5319
1.9055127,-2.6075544,0.72517365,1265,-5384
1.8553418,-2.5964007,0.713616,1260,-5445
1.8124386,-2.597545,0.7056845,1256,-5509
1.7476996,-2.5656996,0.6891229,1251,-5573
1.7126042,-2.5724318,0.6830713,1246,-5634
1.676033,-2.5796585,0.6773346,1241,-5698
1.6237574,-2.561663,0.6651947,1237,-5763
1.5942749,-2.5750396,0.66138,1231,-5823
1.5555091,-2.5764735,0.65457517,1227,-5887
1.5144477,-2.5731812,0.64674485,1222,-5952
1.4973358,-2.6064491,0.6481636,1216,-6012
1.4659512,-2.6192625,0.64448637,1211,-6076
0.3637065,0.6518889,0.16725037,1262,6084
0.33173415,0.5801428,0.15040818,1268,6023
0.32087404,0.5468109,0.14327851,1273,5959
0.33446854,0.5556143,0.14715317,1278,5895
0.33259735,0.53947145,0.14444885,1283,5834
0.34638122,0.5479431,0.14833023,1288,5770
0.35772857,0.5521042,0.15113755,1293,5705
0.36080384,0.5440887,0.15063141,1299,5645
0.37778595,0.55601346,0.15567535,1303,5580
0.36415985,0.5238321,0.14837845,1309,5519
0.40100005,0.56324613,0.16140106,1313,5455
0.41871184,0.5743225,0.1665268,1318,5390
0.42765838,0.5735907,0.16829544,1323,5329
0.45467317,0.59571135,0.17692047,1328,5264
0.46391678,0.5945183,0.17873153,1333,5203
0.4796222,0.6005524,0.18276948,1337,5138
0.46778688,0.57241213,0.1764087,1342,5074
0.45825347,0.54855835,0.17121139,1347,5012
0.48012573,0.56171995,0.17756836,1351,4947
0.4924588,0.5637299,0.18053925,1356,4886
0.50194776,0.56166685,0.18225555,1360,4821
0.50790787,0.55606157,0.18287048,1364,4759
0.51739746,0.55374575,0.18457398,1368,4694
0.53669435,0.56203616,0.1899414,1373,4632
0.5666727,0.58015275,0.19878647,1377,4567
0.56257385,0.5635248,0.19584106,1381,4504
0.6000462,0.5875865,0.20714279,1385,4439
0.6063289,0.5808815,0.20774993,1389,4377
0.6231543,0.58407956,0.21199708,1393,4314
0.63680845,0.5834106,0.21494934,1397,4249
0.63944274,0.57305694,0.21433593,1401,4186
0.642168,0.56246096,0.2136621,1405,4121
0.65557647,0.5616006,0.21668762,1409,4058
0.6467386,0.5417853,0.21237579,1412,3995
0.6563301,0.5375824,0.2141571,1416,3931
0.6585269,0.5269702,0.21341126,1419,3866
0.67563355,0.52854764,0.21763092,1423,3803
0.63898957,0.48858246,0.20461243,1427,3740
0.636521,0.47558898,0.2026477,1430,3676
0.6418011,0.4682318,0.2030481,1433,3611
0.84801257,0.60439223,0.2668144,1437,3547
0.85457385,0.5948456,0.26740494,1440,3484
0.8690132,0.59064424,0.27048844,1443,3420
0.91574496,0.6076448,0.28357682,1446,3356
0.9385785,0.60784835,0.28917298,1449,3292
0.9410782,0.5946533,0.28851777,1452,3228
0.9598949,0.59167266,0.2928499,1455,3164
0.9704773,0.5833218,0.29467803,1458,3100
0.96844846,0.5674683,0.29269043,1461,3036
0.898992,0.51335055,0.27047148,1464,2972
0.92148376,0.5126007,0.276026,1466,2908
0.93983,0.5091336,0.28029662,1469,2844
0.9623337,0.5077057,0.28595352,1472,2781
0.96355957,0.49461424,0.28512695,1474,2717
0.99924,0.4988269,0.2944954,1477,2652
1.0393524,0.5046147,0.3052414,1479,2589
1.053566,0.49695954,0.308237,1482,2525
1.0984421,0.5033493,0.32032013,1484,2461
1.1480926,0.5105499,0.33356935,1486,2397
1.202331,0.51879364,0.34821945,1489,2333
1.2212851,0.510907,0.3526178,1491,2270
1.226762,0.49723542,0.3531195,1493,2206
1.2321136,0.48352203,0.3536212,1495,2142
1.5082392,0.57253355,0.43161714,1497,2078
1.6368278,0.60052824,0.46711427,1499,2014
1.6614807,0.58863604,0.47284698,1501,1950
1.6404135,0.5606088,0.46556717,1503,1886
1.6556115,0.5452237,0.46865663,1504,1822
1.6568482,0.52525634,0.46796265,1506,1758
1.7086868,0.5207077,0.48141328,1508,1694
1.7929811,0.5246727,0.5041228,1510,1631
1.8032385,0.50595826,0.50595826,1511,1567
1.188659,0.31925583,0.33283538,1513,1503
1.1126108,0.28555205,0.3109369,1514,1439
1.0734725,0.2627336,0.29942337,1515,1375
1.0809677,0.25187835,0.30101165,1517,1311
1.0600777,0.23459244,0.29474258,1518,1247
1.0625496,0.22271347,0.29494858,1519,1183
1.0459867,0.20708634,0.2899411,1521,1119
1.0481786,0.19538483,0.29010972,1522,1055
1.045517,0.1828186,0.28896484,1522,991
1.0379083,0.16958068,0.2865042,1523,927
1.0253967,0.15579757,0.2827255,1524,863
1.0222275,0.14367676,0.28160644,1525,800
1.0237296,0.13224792,0.2817044,1526,736
1.029924,0.12135086,0.28318483,1527,671
1.0263745,0.109324954,0.28196564,1527,607
1.0274848,0.097863466,0.28209627,1528,544
1.033303,0.08677292,0.2835129,1529,480
1.0149481,0.07382553,0.2783026,1529,416
1.0205023,0.062788695,0.27971864,1530,352
1.0355667,0.052096557,0.2837097,1530,287
1.0264535,0.040171508,0.28110304,1530,224
1.0268111,0.028698578,0.28113556,1530,160
1.031893,0.017306518,0.2824881,1530,96
1.0320237,0.005779724,0.28252074,1530,32
1.0320237,-0.005779724,0.28252074,1530,-32
1.0463588,-0.017549133,0.2864482,1530,-96
1.0557353,-0.029506989,0.28905487,1530,-160
1.0553677,-0.041303102,0.28902146,1530,-224
1.0500165,-0.052823488,0.28766847,1530,-287
1.0397571,-0.06397339,0.28499633,1530,-352
1.0197583,-0.07417542,0.27962157,1529,-416
1.0381092,-0.08717652,0.28483155,1529,-480
1.0418887,-0.099235386,0.2860509,1528,-544
1.0359668,-0.11034668,0.28460082,1527,-607
1.0347143,-0.12191528,0.28450194,1527,-671
1.0428647,-0.13471985,0.2869699,1526,-736
1.031781,-0.14501953,0.28423828,1525,-800
1.0397046,-0.1579715,0.28667054,1524,-863
1.014103,-0.16569123,0.279933,1523,-927
1.0074981,-0.17617065,0.27845705,1522,-991
1.0102354,-0.18831207,0.279608,1522,-1055
1.0128559,-0.20052704,0.28075746,1521,-1119
1.02477,-0.21479477,0.28446153,1519,-1183
1.0600777,-0.23459244,0.29474258,1518,-1247
1.0668682,-0.24859299,0.2970854,1517,-1311
1.1015984,-0.26961747,0.30726853,1515,-1375
1.1032611,-0.28315246,0.30832398,1514,-1439
2.1815386,-0.5859283,0.6108508,1513,-1503
2.1843352,-0.61288756,0.61288756,1511,-1567
2.1960545,-0.64262235,0.6174527,1510,-1631
2.1935844,-0.6684761,0.61803055,1508,-1694
2.1953237,-0.69596463,0.6200505,1506,-1758
2.2013671,-0.72495115,0.6231445,1504,-1822
2.1841717,-0.7464374,0.61989164,1503,-1886
2.1940649,-0.77732205,0.6244171,1501,-1950
2.2126648,-0.81179446,0.6314453,1499,-2014
2.2036548,-0.83651614,0.6306262,1497,-2078
2.1899247,-0.85939866,0.62851655,1495,-2142
2.1983218,-0.8910313,0.63277984,1493,-2206
2.1929646,-0.917395,0.63316774,1491,-2270
2.1917028,-0.9456976,0.63476163,1489,-2333
2.1902075,-0.97397214,0.63634765,1486,-2397
2.2144592,-1.0147521,0.64576536,1484,-2461
2.216423,-1.0454708,0.64844877,1482,-2525
2.2048187,-1.0704589,0.6475204,1479,-2589
2.1931372,-1.0948279,0.64636004,1477,-2652
2.1981204,-1.1283388,0.6504459,1474,-2717
2.2368913,-1.1801337,0.6646831,1472,-2781
2.2326279,-1.2094803,0.66586304,1469,-2844
2.451654,-1.3638,0.7343811,1466,-2908
2.4491231,-1.3985204,0.73684525,1464,-2972
2.4378185,-1.4284546,0.7367725,1461,-3036
2.3847198,-1.4333763,0.724102,1458,-3100
2.3688393,-1.4601364,0.7226982,1455,-3164
2.3526955,-1.4866333,0.7212944,1452,-3228
2.3403516,-1.5156739,0.7210547,1449,-3292
2.3639936,-1.5686337,0.7320529,1446,-3356
2.350741,-1.5977335,0.73168993,1443,-3420
2.3570337,-1.6406671,0.7375401,1440,-3484
2.3389368,-1.6669981,0.7359114,1437,-3547
2.328486,-1.6987679,0.7366684,1433,-3611
2.320973,-1.7341598,0.7389227,1430,-3676
2.3288474,-1.7806771,0.745726,1427,-3740
2.3475404,-1.8364792,0.7561752,1423,-3803
2.357829,-1.8867956,0.7641104,1419,-3866
2.3177829,-1.8984338,0.75628054,1416,-3931
2.3490734,-1.9678638,0.77138793,1412,-3995
2.405008,-2.060254,0.79492706,1409,-4058
2.397184,-2.099641,0.797591,1405,-4121
2.4024262,-2.1530106,0.8052734,1401,-4186
2.3862429,-2.186151,0.8054562,1397,-4249
2.3970196,-2.2467153,0.815466,1393,-4314
2.3937724,-2.2933068,0.820192,1389,-4377
2.4001849,-2.350346,0.82857114,1385,-4439
2.4012299,-2.4052887,0.835907,1381,-4504
2.405814,-2.4630437,0.84394974,1377,-4567
2.3916442,-2.5045736,0.84642637,1373,-4632
2.3747218,-2.5415509,0.8471472,1368,-4694
2.3462067,-2.5686457,0.84474367,1364,-4759
2.3089597,-2.5836675,0.83837557,1360,-4821
2.2832181,-2.6136565,0.8370456,1356,-4886
2.2332163,-2.612737,0.82592654,1351,-4947
2.2850327,-2.7353284,0.8537276,1347,-5012
2.2835386,-2.7942748,0.86115295,1342,-5074
2.2766876,-2.8507233,0.8675766,1337,-5138
2.2357795,-2.8651946,0.8613707,1333,-5203
2.051934,-2.6884377,0.7984398,1328,-5264
1.9404635,-2.602619,0.7636263,1323,-5329
1.892807,-2.5962524,0.75279236,1318,-5390
1.8553313,-2.6060052,0.74676406,1313,-5455
1.7957807,-2.583172,0.7316983,1309,-5519
1.7575259,-2.5866714,0.7242288,1303,-5580
1.7097794,-2.578331,0.713813,1299,-5645
1.6694,-2.576486,0.70530856,1293,-5705
1.6225226,-2.566681,0.69481003,1288,-5770
1.5862335,-2.5728638,0.6889099,1283,-5834
1.5440879,-2.5650165,0.6793387,1278,-5895
1.5105761,-2.5742176,0.67451113,1273,-5959
1.479486,-2.5873523,0.6707985,1268,-6023
1.4667119,-2.628859,0.67446715,1262,-6084
0.37581024,0.6768466,0.18072373,1313,6095
0.34475708,0.604765,0.16319229,1319,6031
0.32894775,0.5631247,0.15357575,1325,5970
0.34018677,0.5676074,0.15646973,1330,5906
0.33885208,0.5511902,0.15360671,1335,5841
0.34977722,0.5556679,0.15657577,1341,5781
0.35859376,0.5556543,0.15831666,1346,5716
0.3644043,0.5516699,0.15895995,1351,5655
0.38142395,0.56351626,0.1642334,1356,5590
0.36827865,0.5311192,0.15656967,1361,5526
0.39915833,0.5626828,0.16781464,1367,5464
0.41967314,0.577673,0.17432922,1372,5400
0.43154433,0.5808035,0.17738312,1377,5338
0.4526758,0.5951004,0.18394653,1382,5274
0.46223754,0.59366685,0.18575592,1386,5209
0.48059556,0.6037225,0.19122894,1391,5147
0.47196808,0.5793329,0.18582642,1396,5083
0.46568298,0.5591583,0.18164062,1401,5021
0.47503158,0.55744845,0.18340454,1405,4956
0.49048492,0.5631189,0.18770629,1410,4894
0.50318664,0.56464785,0.19071533,1415,4829
0.5091852,0.5590302,0.19133423,1419,4767
0.5187018,0.5566725,0.19313568,1424,4702
0.53130203,0.5578926,0.1962268,1428,4639
0.57103515,0.5866623,0.20923859,1433,4577
0.5604718,0.5628491,0.20359863,1437,4512
0.6044998,0.5938988,0.21792221,1442,4449
0.6145874,0.59025633,0.21973145,1445,4384
0.6208984,0.5833545,0.22037597,1450,4321
0.6342825,0.58292174,0.22353211,1454,4258
0.6408011,0.5755612,0.22407532,1458,4192
0.6433319,0.5651706,0.22343765,1462,4129
0.67509156,0.57999754,0.23291992,1466,4066
0.6702435,0.56305647,0.22972992,1470,4003
0.6204483,0.50927675,0.21117279,1473,3937
0.6561108,0.5264923,0.22190735,1477,3874
0.6884164,0.5399675,0.23141465,1481,3810
0.68657273,0.526326,0.22943115,1485,3747
0.6381111,0.47801057,0.21199036,1488,3683
0.63564926,0.4649042,0.20981872,1491,3618
0.8489905,0.60657716,0.2787012,1495,3554
0.85162127,0.59422225,0.2780342,1498,3490
0.8460785,0.5764203,0.27473694,1502,3426
0.92066836,0.6122997,0.2973967,1505,3362
0.93544143,0.6071434,0.3006285,1508,3298
0.93387663,0.59140396,0.2986197,1511,3234
0.96083677,0.59349793,0.30574676,1514,3170
0.975531,0.5875873,0.30893615,1517,3106
0.96928084,0.5694165,0.3056845,1521,3043
0.8917685,0.5104967,0.27996552,1524,2978
0.9183902,0.512135,0.28703645,1526,2914
0.9324554,0.5063263,0.29013976,1529,2850
0.96340364,0.5094449,0.2986389,1532,2786
0.96038085,0.49410155,0.2964746,1534,2722
1.0001673,0.50063235,0.3076294,1537,2659
1.0446299,0.5082858,0.32004136,1540,2594
1.0457153,0.49453124,0.31926268,1542,2531
1.0774137,0.49473268,0.32765716,1544,2466
1.1355213,0.5061896,0.34419158,1547,2402
1.1984439,0.51829743,0.3621135,1550,2338
1.2128705,0.50858414,0.36532745,1552,2274
1.2228321,0.4967755,0.36716735,1554,2210
1.232666,0.48478317,0.36901093,1556,2146
1.4764404,0.561698,0.44072998,1558,2082
1.6226103,0.5965987,0.48293212,1560,2018
1.6653208,0.59118944,0.49430984,1562,1954
1.6307092,0.55839175,0.48267946,1564,1890
1.6458069,0.543219,0.48603517,1566,1826
1.6561624,0.52627474,0.48799118,1568,1762
1.707927,0.52160555,0.5019618,1569,1698
1.7919898,0.5254956,0.5254956,1571,1634
1.7976141,0.5054254,0.52602845,1573,1570
1.8215894,0.49023926,0.5319299,1574,1506
1.1137847,0.28649658,0.3246791,1576,1442
1.070118,0.26252395,0.3113388,1577,1378
1.0682281,0.24944457,0.31029236,1579,1314
1.0661753,0.23643523,0.30917388,1580,1250
1.0451642,0.21954072,0.302601,1581,1186
1.0474677,0.20782013,0.30280426,1583,1122
1.0497034,0.19606568,0.30297363,1583,1057
1.047032,0.183481,0.30184495,1585,993
1.0394614,0.1701915,0.2992804,1586,929
1.0317566,0.1570813,0.2967128,1587,865
1.0096009,0.14217225,0.2900055,1587,801
1.0110888,0.13085023,0.29016724,1588,737
1.0219989,0.12065582,0.29303527,1589,673
1.0232397,0.10922699,0.29319856,1590,609
1.0243826,0.097765505,0.29326385,1590,545
1.0253623,0.08627136,0.2933618,1591,480
1.0166528,0.07411072,0.29074952,1591,416
1.0125978,0.06242813,0.28941023,1592,352
1.0324501,0.052063752,0.2949295,1592,288
1.018529,0.039918214,0.29091126,1592,224
1.0236909,0.028666077,0.292316,1593,160
1.0287583,0.017273866,0.29372102,1593,96
1.024081,0.005720215,0.292381,1593,32
1.024081,-0.005720215,0.292381,1593,-32
1.0335655,-0.017354583,0.29509354,1593,-96
1.0525273,-0.029473571,0.30055022,1593,-160
1.0569642,-0.04142456,0.30188903,1592,-224
1.0468564,-0.05279022,0.2990448,1592,-288
1.0509901,-0.06479508,0.30038315,1592,-352
1.0310395,-0.07515945,0.29486388,1591,-416
1.0445279,-0.08788391,0.2988452,1591,-480
1.04353,-0.099592894,0.29874542,1590,-545
1.0375842,-0.11075821,0.2973088,1590,-609
1.0363259,-0.12234726,0.29714325,1589,-673
1.0253967,-0.13270187,0.29427338,1588,-737
1.0238876,-0.14418411,0.29410934,1587,-801
1.0317566,-0.1570813,0.2967128,1587,-865
1.0062366,-0.16475159,0.28971437,1586,-929
1.0091304,-0.17683914,0.29091844,1585,-993
1.0071478,-0.18811707,0.29069093,1583,-1057
1.0144393,-0.20126724,0.29325637,1583,-1122
1.0169165,-0.21360718,0.2944226,1581,-1186
1.0520849,-0.23331055,0.3050879,1580,-1250
1.0682281,-0.24944457,0.31029236,1579,-1314
1.084137,-0.26596314,0.31541747,1577,-1378
2.166987,-0.55740964,0.63169783,1576,-1442
2.1794016,-0.5865362,0.6364162,1574,-1506
2.1867883,-0.6148474,0.6399109,1573,-1570
2.1845648,-0.6406171,0.6406171,1571,-1634
2.1913025,-0.66922975,0.6440265,1569,-1698
2.1883364,-0.69538236,0.6447972,1568,-1762
2.1898375,-0.722783,0.6466968,1566,-1826
2.1773157,-0.74556214,0.6444714,1564,-1890
2.2007644,-0.7812721,0.65324324,1562,-1954
2.2056653,-0.8109753,0.6564648,1560,-2018
2.2011566,-0.8374095,0.6570639,1558,-2082
2.1874218,-0.8602698,0.65482664,1556,-2146
2.1957421,-0.8920203,0.65929323,1554,-2210
2.1947181,-0.9202951,0.66106874,1552,-2274
2.1890397,-0.94670564,0.661425,1550,-2338
2.1786163,-0.9711777,0.6603676,1547,-2402
2.207384,-1.0135987,0.6712976,1544,-2466
2.2090735,-1.0446973,0.67444247,1542,-2531
2.2106278,-1.0756257,0.67726594,1540,-2594
2.1986434,-1.100528,0.6762543,1537,-2659
2.1994436,-1.1315808,0.6789798,1534,-2722
2.2337322,-1.1811908,0.6924194,1532,-2786
2.237893,-1.2151831,0.69633543,1529,-2850
2.4434235,-1.362561,0.7636749,1526,-2914
2.4450366,-1.3996717,0.767605,1524,-2978
2.4252822,-1.4247632,0.76486725,1521,-3043
2.3809571,-1.4341114,0.75401366,1517,-3106
2.3610306,-1.4583817,0.7513008,1514,-3170
2.3530428,-1.4901314,0.7524173,1511,-3234
2.3406284,-1.5191727,0.752222,1508,-3298
2.3599665,-1.5695192,0.76232255,1505,-3362
2.3426795,-1.5960317,0.7607103,1502,-3426
2.3488903,-1.638948,0.76685715,1498,-3490
2.3465154,-1.6765119,0.7702991,1495,-3554
2.3242145,-1.699895,0.7671899,1491,-3618
2.3165367,-1.7353232,0.76958925,1488,-3683
2.3243747,-1.7818635,0.7767334,1485,-3747
2.3467014,-1.8406627,0.78885543,1481,-3810
2.3491786,-1.8850845,0.79453033,1477,-3874
2.3210747,-1.9051858,0.78998977,1473,-3937
2.35511,-1.9784747,0.8072278,1470,-4003
2.3921723,-2.0552087,0.8253467,1466,-4066
2.4061341,-2.113802,0.8356821,1462,-4129
2.397604,-2.1535044,0.83839417,1458,-4192
2.3803413,-2.187594,0.83887327,1454,-4258
2.39187,-2.2472405,0.84894836,1450,-4321
2.392002,-2.2973046,0.85520476,1445,-4384
2.3627307,-2.3212957,0.8517645,1442,-4449
2.3922577,-2.4024048,0.86901855,1437,-4512
2.3990235,-2.464676,0.87904966,1433,-4577
2.3891883,-2.5087624,0.88240355,1428,-4639
2.372152,-2.5458016,0.88325745,1424,-4702
2.3435574,-2.572972,0.88062805,1419,-4767
2.306272,-2.5879693,0.87411195,1415,-4829
2.2740664,-2.6108239,0.87027466,1410,-4894
2.2304463,-2.6174233,0.8611511,1405,-4956
2.2880557,-2.7473311,0.89246094,1401,-5021
2.2924163,-2.8139026,0.90258545,1396,-5083
2.2730055,-2.855342,0.9044287,1391,-5147
2.230669,-2.8649213,0.89642215,1386,-5209
1.9870703,-2.612259,0.80745363,1382,-5274
1.9347088,-2.6038709,0.7952478,1377,-5338
1.8871018,-2.5975637,0.7838886,1372,-5400
1.8411881,-2.5954735,0.77407455,1367,-5464
1.7970891,-2.5917022,0.76401293,1361,-5526
1.7681725,-2.6123002,0.7613391,1356,-5590
1.704126,-2.579868,0.7433716,1351,-5655
1.6637695,-2.5780725,0.73454267,1346,-5716
1.619339,-2.5725365,0.72488785,1341,-5781
1.5821589,-2.5736022,0.7172163,1335,-5841
1.540846,-2.5709276,0.7087158,1330,-5906
1.509723,-2.5844903,0.7048439,1325,-5970
1.473053,-2.583996,0.6972762,1319,-6031
1.4677871,-2.643533,0.7058455,1313,-6095
0.37595215,0.68044436,0.18881837,1365,6107
0.34519044,0.6083789,0.1705957,1370,6042
0.32996064,0.56654435,0.16057205,1376,5978
0.32341307,0.5420105,0.15527955,1382,5917
0.34211427,0.5589226,0.16186981,1387,5852
0.34538695,0.5509793,0.16134553,1393,5791
0.35676757,0.55507326,0.16435547,1398,5726
0.3629309,0.5508813,0.16495727,1403,5662
0.38767716,0.5749806,0.17414597,1409,5601
0.38580322,0.5584747,0.17109069,1414,5536
0.40004912,0.5660344,0.17543335,1420,5474
0.41488007,0.5731195,0.17973755,1425,5409
0.43533233,0.5879544,0.18660721,1430,5348
0.45355758,0.5983025,0.19218902,1435,5283
0.46283937,0.5970685,0.19414307,1441,5221
0.48151857,0.60683596,0.19975586,1445,5156
0.47574097,0.58640444,0.19547607,1451,5094
0.466783,0.5622409,0.18980987,1456,5029
0.46961975,0.55332184,0.18919373,1461,4967
0.48212036,0.55513304,0.19229615,1465,4902
0.5008539,0.5641956,0.19802307,1470,4840
0.5038872,0.5547844,0.19734497,1475,4775
0.50979996,0.54913175,0.19798355,1480,4712
0.53254396,0.5606934,0.20495605,1484,4647
0.5722092,0.5893814,0.21844025,1489,4584
0.5614723,0.56580275,0.21267013,1493,4522
0.5643506,0.5558673,0.21195678,1498,4456
0.60855865,0.58636856,0.22684097,1502,4393
0.6218605,0.58612883,0.23010865,1507,4330
0.62842345,0.5788907,0.23067582,1510,4265
0.63822085,0.575018,0.23265809,1515,4201
0.6444135,0.5678204,0.23328277,1519,4138
0.6541792,0.5636905,0.23524886,1523,4075
0.65308183,0.549857,0.23313354,1527,4009
0.6366838,0.5240945,0.22583084,1531,3945
0.6611279,0.53198,0.2330249,1535,3882
0.68582034,0.5393875,0.24022491,1539,3818
0.687854,0.52868956,0.23950195,1543,3754
0.63576967,0.47748184,0.22007218,1547,3690
0.63707155,0.46743104,0.21923889,1550,3626
0.8692539,0.6229523,0.2974521,1554,3562
0.8602112,0.6020148,0.2927246,1557,3498
0.86676425,0.59226835,0.29335663,1561,3434
0.9132385,0.6091388,0.30747437,1564,3370
0.93602175,0.6092407,0.31350586,1567,3305
0.9426416,0.5986206,0.31410766,1571,3241
0.96552,0.5980304,0.3201715,1574,3177
0.9761568,0.5895346,0.32210678,1577,3112
0.961864,0.5662292,0.31591308,1580,3048
0.88861585,0.51000917,0.2906584,1583,2985
0.9109987,0.509256,0.29661345,1586,2920
0.9334566,0.50808823,0.30258682,1589,2855
0.9685895,0.5133966,0.31276244,1592,2792
0.9699525,0.5001648,0.3118756,1594,2727
1.0096581,0.5065323,0.32344055,1597,2664
1.0411365,0.50769746,0.33217666,1600,2599
1.0422363,0.4939453,0.33138427,1603,2535
1.0606036,0.4882544,0.33604568,1605,2471
1.1316632,0.50571716,0.35737976,1608,2407
1.1943915,0.5178012,0.3759662,1610,2343
1.2088298,0.50808424,0.3792824,1613,2279
1.2276306,0.49989623,0.3839557,1615,2215
1.2330213,0.48604065,0.38446105,1617,2151
1.4670992,0.55933684,0.45610154,1619,2086
1.6218017,0.5975464,0.50273436,1621,2022
1.6552542,0.5890759,0.5118393,1624,1958
1.6435162,0.5641336,0.50674254,1625,1894
1.6540384,0.5471919,0.50880706,1628,1830
1.6691666,0.53138196,0.512056,1629,1765
1.7023225,0.52109605,0.52109605,1631,1701
1.7907913,0.52631575,0.54691255,1633,1637
1.8195206,0.51264006,0.55448335,1634,1573
1.8295631,0.4935692,0.55655366,1636,1509
1.853448,0.4777455,0.5626158,1638,1445
1.094606,0.26911545,0.33172378,1639,1381
1.0461035,0.2448291,0.31646973,1641,1317
1.0533829,0.23411179,0.31812286,1642,1253
1.0511621,0.2212793,0.31694824,1643,1188
1.0488514,0.20851807,0.31573746,1644,1124
1.0557421,0.19762695,0.31742677,1646,1060
1.034215,0.18162003,0.31054184,1647,996
1.0361197,0.17002441,0.3107089,1648,931
1.0284455,0.15691574,0.30803695,1649,867
1.01586,0.14338288,0.3039743,1650,803
1.012608,0.13133743,0.30265138,1650,739
1.0187335,0.12055786,0.30423555,1651,674
1.0199744,0.10909638,0.3043335,1652,610
1.0258888,0.09812393,0.30588683,1653,546
1.0077684,0.08499756,0.30029252,1653,482
1.0086699,0.07366455,0.3003569,1654,417
1.014162,0.0626593,0.30187744,1654,353
1.0291694,0.05199814,0.3061821,1654,289
1.0200833,0.040074006,0.3034314,1655,224
1.0204408,0.028633576,0.3034639,1655,160
1.0111167,0.017031707,0.30064666,1655,96
1.0256234,0.0057470705,0.30495393,1655,32
1.0256234,-0.0057470705,0.30495393,1655,-32
1.049453,-0.01767746,0.3120456,1655,-96
1.0491856,-0.029440155,0.31201217,1655,-160
1.0631855,-0.041767273,0.31625244,1655,-224
1.0531037,-0.053207397,0.3133026,1654,-289
1.0619998,-0.06561493,0.31611693,1654,-353
1.0277916,-0.07506104,0.30605087,1654,-417
1.0364254,-0.08741455,0.30883163,1653,-482
1.035432,-0.099036716,0.3087323,1653,-546
1.0295068,-0.11011597,0.30717772,1652,-610
1.0282544,-0.12168457,0.30707887,1651,-674
1.0316242,-0.13380386,0.30833495,1650,-739
1.0111129,-0.14271286,0.30255386,1650,-803
1.0284455,-0.15691574,0.30803695,1649,-867
1.0171951,-0.16691895,0.30503386,1648,-931
1.02477,-0.1799614,0.30770585,1647,-996
1.0086108,-0.18880433,0.30325592,1646,-1060
1.0159278,-0.20197266,0.30582643,1644,-1124
1.0323913,-0.21732788,0.31128845,1643,-1188
1.0487012,-0.23307128,0.31670898,1642,-1253
1.0647839,-0.24920104,0.32212096,1641,-1317
1.1132376,-0.27369612,0.33737016,1639,-1381
2.155388,-0.5555737,0.65427,1638,-1445
2.1769485,-0.58728486,0.6622284,1636,-1509
2.1935844,-0.61803055,0.6684761,1634,-1573
2.1913025,-0.6440265,0.66922975,1633,-1637
2.1887004,-0.66998065,0.66998065,1631,-1701
2.1904953,-0.6973479,0.6719858,1629,-1765
2.1962714,-0.7265744,0.6756061,1628,-1830
2.1883283,-0.7511392,0.6747235,1625,-1894
2.1979606,-0.7822156,0.67965543,1624,-1958
2.1984425,-0.81000733,0.6814844,1621,-2022
2.1984055,-0.83815,0.6834549,1619,-2086
2.1979945,-0.86642027,0.6853436,1617,-2151
2.2017288,-0.89655304,0.68861616,1615,-2215
2.1874063,-0.91939056,0.6863205,1613,-2279
2.199267,-0.9534421,0.6922772,1610,-2343
2.197532,-0.9820322,0.69398165,1608,-2407
2.2041352,-1.014685,0.6983665,1605,-2471
2.2017243,-1.0434594,0.7000493,1603,-2535
2.211875,-1.0785937,0.70570314,1600,-2599
2.204062,-1.1057492,0.70606387,1597,-2664
2.213372,-1.1413453,0.7116809,1594,-2727
2.2430494,-1.1889185,0.724292,1592,-2792
2.2850678,-1.2437816,0.7407216,1589,-2855
2.45172,-1.3705323,0.79825926,1586,-2920
2.4572523,-1.410307,0.80374557,1583,-2985
2.4295359,-1.430217,0.7979529,1580,-3048
2.4012632,-1.4502053,0.7923555,1577,-3112
2.368797,-1.4672017,0.78550553,1574,-3177
2.3484778,-1.491391,0.78256136,1571,-3241
2.352158,-1.5309799,0.7878186,1567,-3305
2.355194,-1.5709369,0.7929602,1564,-3370
2.3498058,-1.605645,0.7952925,1561,-3434
2.35177,-1.6458752,0.80029297,1557,-3498
2.3454192,-1.6808487,0.8025847,1554,-3562
2.3307495,-1.7101135,0.8020935,1550,-3626
2.3157427,-1.7391914,0.8015962,1547,-3690
2.323418,-1.7857959,0.8089844,1543,-3754
2.3530078,-1.8506057,0.82419705,1539,-3818
2.3590248,-1.8982013,0.8314752,1535,-3882
2.3233373,-1.9124854,0.82408446,1531,-3945
2.3540463,-1.9819705,0.8403345,1527,-4009
2.397439,-2.0658154,0.86214113,1523,-4075
2.4038794,-2.1181617,0.8702234,1519,-4138
2.3915353,-2.1547022,0.87181425,1515,-4201
2.3716772,-2.18474,0.8705731,1510,-4265
2.3855553,-2.248483,0.88273317,1507,-4330
2.3959823,-2.3086169,0.8931053,1502,-4393
2.3744018,-2.33871,0.8917694,1498,-4456
2.4058237,-2.424379,0.9112593,1493,-4522
2.3999126,-2.471935,0.9161641,1489,-4584
2.3931193,-2.519616,0.9210213,1484,-4647
2.364814,-2.547263,0.9183882,1480,-4712
2.3406372,-2.577063,0.91669923,1475,-4775
2.3084228,-2.6003628,0.91268325,1470,-4840
2.2837281,-2.6295776,0.91087645,1465,-4902
2.23539,-2.633812,0.9005621,1461,-4967
2.2751806,-2.740459,0.925166,1456,-5029
2.2841666,-2.815493,0.93853575,1451,-5094
2.2571182,-2.8445435,0.9363556,1445,-5156
2.2251892,-2.8705215,0.9333801,1441,-5221
2.1975596,-2.898872,0.93118685,1435,-5283
1.9171921,-2.5893357,0.8218132,1430,-5348
1.8726436,-2.5868888,0.81128114,1425,-5409
1.837988,-2.6005917,0.806012,1420,-5474
1.793985,-2.5969076,0.79557174,1414,-5536
1.773013,-2.6296318,0.79644376,1409,-5601
1.6945671,-2.5721297,0.7702049,1403,-5662
1.6605432,-2.5835395,0.76497805,1398,-5726
1.6186792,-2.5822015,0.7561566,1393,-5791
1.5711914,-2.5669036,0.7434021,1387,-5852
1.537456,-2.5766344,0.73817503,1382,-5917
1.503154,-2.5809243,0.7314949,1376,-5978
1.462265,-2.5771606,0.7226623,1370,-6042
1.4568145,-2.6367218,0.73167115,1365,-6107
0.3204248,0.58179426,0.16752899,1415,6115
0.35034072,0.620403,0.18054245,1421,6054
0.31107423,0.53658205,0.1578125,1427,5989
0.32410187,0.5456001,0.16221085,1433,5928
0.33269897,0.54589784,0.16407348,1439,5863
0.33619523,0.5378444,0.16343017,1444,5799
0.34968078,0.546297,0.16786805,1451,5737
0.34513396,0.5259827,0.16345215,1456,5672
0.39382753,0.5863748,0.18428223,1462,5611
0.38664412,0.56181836,0.17861664,1467,5546
0.39812896,0.5653798,0.18184845,1473,5484
0.40441313,0.5606885,0.18248123,1478,5419
0.4304123,0.583374,0.19212341,1484,5358
0.43397704,0.57446027,0.19147919,1489,5293
0.46074462,0.59635437,0.20121276,1494,5231
0.47038192,0.5947151,0.20317337,1500,5165
0.47362244,0.5856903,0.20259339,1505,5103
0.46167755,0.5578079,0.19541931,1510,5038
0.4644882,0.5489282,0.19477585,1515,4976
0.48007935,0.5544373,0.19930054,1520,4911
0.4923648,0.5562573,0.20260437,1525,4848
0.50152206,0.55428773,0.20460586,1530,4786
0.49789184,0.5377844,0.20122558,1535,4720
0.52683794,0.55667955,0.2111476,1540,4657
0.5595886,0.57844543,0.22248489,1545,4594
0.545699,0.55134934,0.21505646,1549,4529
0.5653244,0.55872804,0.22107926,1554,4466
0.6128668,0.5924757,0.23785995,1559,4403
0.61948377,0.5853186,0.23845413,1563,4337
0.6328476,0.58483094,0.24185868,1567,4274
0.63915694,0.57767487,0.2425415,1572,4210
0.6453844,0.57040954,0.24319702,1576,4147
0.65177566,0.5628711,0.2437706,1580,4081
0.65416414,0.552366,0.24303345,1584,4017
0.6527222,0.53880125,0.24092041,1588,3953
0.6660333,0.53742766,0.24428284,1593,3890
0.69449216,0.54770994,0.25313476,1597,3826
0.7042511,0.54275435,0.25513154,1601,3762
0.6256757,0.471147,0.22533874,1605,3698
0.63853914,0.46970215,0.22860718,1608,3633
0.8660019,0.62217313,0.30829194,1612,3569
0.86098254,0.60404116,0.30479416,1616,3505
0.8714935,0.5969299,0.30682373,1619,3440
0.9219063,0.6163431,0.3228346,1623,3376
0.94069886,0.6137073,0.32770568,1626,3312
0.9512451,0.6057518,0.32985917,1630,3248
0.95376706,0.5923554,0.3290982,1633,3184
0.9684729,0.58643496,0.3325232,1636,3119
0.9541933,0.5631894,0.32607743,1639,3055
0.88539827,0.50945663,0.3012863,1643,2991
0.9160533,0.5133815,0.31030792,1646,2926
0.92574155,0.5054199,0.3123291,1649,2863
0.9651453,0.51280516,0.32420838,1652,2798
0.9663849,0.49974915,0.32337525,1655,2734
0.9975455,0.50161695,0.3323848,1657,2669
1.0287765,0.5030101,0.34156403,1660,2605
1.0341738,0.49141312,0.34211105,1663,2541
1.0612079,0.48977965,0.34982666,1666,2477
1.1101648,0.49737275,0.36474517,1669,2413
1.1770391,0.5115375,0.38542175,1671,2348
1.2046225,0.5075427,0.393154,1673,2284
1.2189445,0.49749756,0.39657974,1676,2220
1.259932,0.49776322,0.40863478,1678,2155
1.4575886,0.55697966,0.47127137,1680,2091
1.6251224,0.6003137,0.5240869,1683,2027
1.6541768,0.5899574,0.5318857,1684,1962
1.6378268,0.5635812,0.52535737,1687,1898
1.6529297,0.5481439,0.5289264,1689,1834
1.6679873,0.5322794,0.5322794,1690,1769
1.701178,0.5218762,0.54157287,1692,1705
1.7892059,0.5271927,0.56855166,1695,1641
1.8179306,0.513459,0.5763229,1696,1577
1.8511128,0.50045455,0.5856279,1698,1512
1.9212494,0.49639663,0.6066437,1699,1448
1.1373345,0.2802681,0.35851288,1701,1384
1.0472374,0.24564743,0.32952118,1703,1320
1.0545126,0.23487641,0.33122712,1704,1255
1.0476757,0.22100586,0.32853517,1705,1191
1.0640972,0.2119812,0.333143,1706,1126
1.0663486,0.20003128,0.33338547,1708,1062
1.0448931,0.18390472,0.32627928,1709,998
1.046858,0.1721164,0.32644868,1710,933
1.0486532,0.16036195,0.3266858,1711,869
1.0408509,0.14723511,0.32391053,1712,805
1.0281806,0.13367142,0.3196591,1713,740
1.0343491,0.12264496,0.32126525,1714,676
1.0356131,0.111002505,0.32136506,1714,611
1.0415332,0.09981582,0.32293946,1715,547
1.0187335,0.086108096,0.31572968,1716,483
1.0386734,0.07604187,0.32169768,1716,418
1.0394385,0.06436615,0.32176423,1716,354
1.0448414,0.052898712,0.32330704,1717,289
1.0453427,0.041169435,0.3234073,1717,225
1.0457437,0.029406738,0.3234407,1718,161
1.0316491,0.017402343,0.31901002,1718,96
1.0413345,0.005854492,0.32199708,1718,32
1.0413345,-0.005854492,0.32199708,1718,-32
1.05553,-0.017805176,0.3263945,1718,-96
1.060069,-0.02980957,0.3278714,1718,-161
1.0644357,-0.04192139,0.32931426,1717,-225
1.0734673,-0.054347992,0.33216476,1717,-289
1.0680469,-0.066137694,0.3306201,1716,-354
1.0482025,-0.076739505,0.32464904,1716,-418
1.0615774,-0.08972946,0.329008,1716,-483
1.0367774,-0.09936005,0.32146484,1715,-547
1.0261121,-0.10998413,0.31841674,1714,-611
1.0343491,-0.12264496,0.32126525,1714,-676
1.0329187,-0.13428742,0.3211322,1713,-740
1.0219263,-0.1445581,0.31802124,1712,-805
1.0392059,-0.15891723,0.3237427,1711,-869
1.0421424,-0.17134109,0.32497817,1710,-933
1.0260663,-0.18059112,0.3204004,1709,-998
1.0334656,-0.19386292,0.32310486,1708,-1062
1.0312836,-0.20544434,0.32286987,1706,-1126
1.0523529,-0.2219925,0.33000183,1705,-1191
1.0638446,-0.23695496,0.33415833,1704,-1255
1.0658549,-0.25001448,0.33537933,1703,-1320
1.5365621,-0.37864792,0.48435822,1701,-1384
2.1758728,-0.56218415,0.68704224,1699,-1448
2.1834822,-0.59031177,0.690778,1698,-1512
2.1953237,-0.6200505,0.69596463,1696,-1577
2.1929243,-0.646149,0.6968402,1695,-1641
2.1950684,-0.67338866,0.6988037,1692,-1705
2.196639,-0.70097995,0.70097995,1690,-1769
2.1933105,-0.7273448,0.70184463,1689,-1834
2.1852772,-0.7519606,0.7009602,1687,-1898
2.2040665,-0.78607404,0.7086978,1684,-1962
2.2132192,-0.8175543,0.7137427,1683,-2027
2.2087383,-0.84401214,0.7141351,1680,-2091
2.1859598,-0.8636104,0.7089741,1678,-2155
2.185235,-0.8918774,0.7109593,1676,-2220
2.1842055,-0.9202698,0.71286166,1673,-2284
2.2003605,-0.9562697,0.7205086,1671,-2348
2.1984758,-0.98495466,0.7223103,1669,-2413
2.2050507,-1.0176979,0.7268939,1666,-2477
2.2111416,-1.0506783,0.7314592,1663,-2541
2.2082107,-1.0796828,0.73314786,1660,-2605
2.2048752,-1.1087242,0.7346703,1657,-2669
2.2180023,-1.1470014,0.742196,1655,-2734
2.268938,-1.205542,0.76217407,1652,-2798
2.2722747,-1.2405761,0.766626,1649,-2863
2.3005905,-1.2893143,0.77931213,1646,-2926
2.444198,-1.4063873,0.83172,1643,-2991
2.4329863,-1.4360111,0.83142686,1639,-3055
2.3883526,-1.4462082,0.820036,1636,-3119
2.37219,-1.473294,0.8185263,1633,-3184
2.3518019,-1.4976246,0.81552416,1630,-3248
2.343707,-1.5290228,0.8164633,1626,-3312
2.374607,-1.5875504,0.83154374,1623,-3376
2.3490713,-1.6089975,0.8270294,1619,-3440
2.3431306,-1.6438745,0.8294855,1616,-3505
2.332744,-1.6759439,0.83044404,1612,-3569
2.3180904,-1.7051611,0.8299133,1608,-3633
2.3184545,-1.7458453,0.83499753,1605,-3698
2.3221252,-1.7896225,0.8412445,1601,-3762
2.3590088,-1.8604279,0.85983276,1597,-3826
2.3460836,-1.8930739,0.8604794,1593,-3890
2.3141968,-1.9102954,0.85417235,1588,-3953
2.3667512,-1.9984479,0.87928957,1584,-4017
2.399554,-2.072246,0.8974571,1580,-4081
2.397657,-2.1191192,0.90349734,1576,-4147
2.3852339,-2.1557922,0.9051269,1572,-4210
2.389972,-2.2086353,0.9133881,1567,-4274
2.3869376,-2.2552955,0.9187894,1563,-4337
2.3995295,-2.319693,0.9312822,1559,-4403
2.36751,-2.3398852,0.92585313,1554,-4466
2.39972,-2.4245672,0.9457141,1549,-4529
2.4025452,-2.4835052,0.95521957,1545,-4594
2.3856812,-2.520813,0.95614016,1540,-4657
2.3649862,-2.554476,0.9558215,1535,-4720
2.3264153,-2.5711799,0.9491072,1530,-4786
2.295571,-2.5934594,0.94461,1525,-4848
2.2772186,-2.6299293,0.9453664,1520,-4911
2.263211,-2.6746435,0.9490421,1515,-4976
2.2837648,-2.7592897,0.9666742,1510,-5038
2.286139,-2.8270822,0.97790265,1505,-5103
2.2590318,-2.8561478,0.9757498,1500,-5165
2.2328393,-2.8900251,0.975108,1494,-5231
2.2456129,-2.9725428,0.9908084,1489,-5293
2.2209275,-3.01021,0.9913568,1484,-5358
2.1860933,-3.0308545,0.9864195,1478,-5419
2.0045655,-2.8466675,0.9156006,1473,-5484
1.7851442,-2.5939274,0.8246768,1467,-5546
1.7587366,-2.6186054,0.822959,1462,-5611
1.701776,-2.5934992,0.8059448,1456,-5672
1.6466311,-2.572488,0.7904831,1451,-5737
1.6142503,-2.5824742,0.78471434,1444,-5799
1.5727588,-2.580608,0.7756201,1439,-5863
1.5264951,-2.569735,0.7640007,1433,-5928
1.4921842,-2.573917,0.7570068,1427,-5989
1.4609447,-2.5871227,0.7528743,1421,-6054
1.4734863,-2.6754043,0.7703888,1415,-6115
0.395195,0.72110444,0.21519776,1466,6127
0.33643097,0.5986075,0.18053345,1473,6066
0.31169358,0.5401442,0.1646553,1479,6001
0.32264268,0.5447606,0.16784775,1484,5936
0.33836517,0.55764544,0.17369385,1491,5875
0.33437622,0.53720474,0.16916703,1496,5810
0.3477997,0.5456631,0.17375672,1503,5748
0.35125184,0.5374916,0.17308915,1508,5683
0.37301528,0.55758226,0.18161881,1514,5621
0.37104493,0.5412317,0.17832154,1520,5556
0.39614335,0.56468153,0.1882199,1526,5494
0.40805587,0.5678223,0.19151612,1531,5429
0.43689606,0.5942944,0.20285293,1537,5367
0.44062746,0.5852844,0.20219971,1542,5302
0.4644818,0.60322845,0.21095276,1548,5240
0.47416627,0.60151476,0.21296722,1553,5175
0.4684578,0.581179,0.20834275,1559,5112
0.4440094,0.5387276,0.19558716,1565,5050
0.46554565,0.5518799,0.20294952,1570,4985
0.4777136,0.5539038,0.20635132,1575,4922
0.48996794,0.5557169,0.20977142,1580,4859
0.49941713,0.5535072,0.21174851,1585,4794
0.5020697,0.54432005,0.21106385,1590,4731
0.52106535,0.5526239,0.21724518,1596,4668
0.5572952,0.57763,0.23023148,1600,4602
0.5533649,0.56102234,0.22679627,1605,4539
0.5764505,0.5716541,0.23440704,1610,4476
0.6069873,0.58826905,0.24476074,1614,4410
0.61329836,0.5813672,0.24545899,1619,4346
0.6266232,0.5809119,0.24895447,1624,4283
0.6399811,0.58024293,0.2524658,1629,4219
0.6390628,0.56657106,0.25033966,1633,4155
0.6452011,0.559292,0.25101867,1638,4092
0.63683534,0.5393161,0.24593537,1642,4026
0.65745056,0.5442722,0.25221375,1646,3961
0.6670711,0.5397914,0.2542862,1650,3897
0.68798125,0.5440631,0.26061082,1654,3833
0.6900815,0.5332587,0.25979766,1658,3769
0.6308853,0.4762985,0.23608474,1662,3705
0.6360718,0.4690979,0.23661347,1666,3640
0.86268216,0.6213602,0.31906402,1670,3576
0.85750717,0.6034396,0.31555435,1674,3513
0.87194777,0.59906995,0.31911057,1678,3449
0.9182405,0.6157086,0.33425492,1682,3384
0.9369855,0.6130646,0.3392743,1685,3319
0.9436981,0.6023172,0.339917,1688,3254
0.96227,0.5992987,0.34507048,1692,3191
0.96067584,0.5833046,0.3427681,1696,3126
0.9588283,0.56742555,0.34045532,1699,3061
0.88205063,0.50883913,0.31188172,1702,2997
0.92097944,0.5174629,0.32413512,1705,2932
0.92650986,0.50707656,0.32474214,1709,2869
0.9572406,0.5101057,0.33421677,1712,2805
0.95861024,0.49692687,0.33322725,1715,2740
0.9938124,0.50111926,0.34415284,1718,2675
1.0249109,0.5024995,0.35359862,1721,2611
1.0346558,0.49295655,0.35566407,1724,2547
1.0529654,0.48725328,0.36066604,1726,2483
1.0974243,0.4929181,0.37460083,1729,2418
1.1771213,0.51287156,0.40044618,1732,2354
1.195852,0.50506103,0.40549317,1734,2289
1.2189972,0.49871704,0.4120038,1737,2225
1.2598773,0.4989154,0.42446595,1739,2160
1.2830273,0.49157226,0.43105957,1741,2096
1.6238512,0.6011966,0.543924,1743,2031
1.6482408,0.5893414,0.5506456,1746,1967
1.6319717,0.5629736,0.5438617,1748,1903
1.6470978,0.547533,0.547533,1750,1838
1.6574707,0.5303795,0.54964983,1752,1774
1.7041608,0.5242255,0.5637735,1754,1709
1.7921008,0.5292383,0.5915051,1756,1645
1.8207141,0.5153925,0.599595,1758,1580
1.853827,0.5023972,0.6092718,1759,1516
1.969832,0.5101639,0.6462076,1761,1451
1.998435,0.49365968,0.6543677,1763,1387
2.4072332,0.5659932,0.7868628,1765,1323
2.4225514,0.54082686,0.7904515,1766,1258
1.6453153,0.34785065,0.5358882,1767,1193
2.4431033,0.4879184,0.7946829,1769,1129
1.0626078,0.19982345,0.3451622,1770,1065
2.4014845,0.42367187,0.77898437,1771,1000
1.0573311,0.17427063,0.34249878,1772,935
1.0591507,0.16235733,0.3427391,1773,871
1.098587,0.1557576,0.3551387,1774,806
1.0812995,0.14088868,0.34918168,1775,742
1.0875305,0.12925568,0.35084686,1776,677
1.0841299,0.116498716,0.34949616,1777,613
1.0758393,0.10335816,0.3465477,1777,548
1.0579365,0.08962738,0.3405432,1778,484
1.044577,0.076638795,0.3360962,1779,419
1.035846,0.06429962,0.3331073,1779,355
1.0460205,0.05307312,0.33623046,1779,290
1.046524,0.041290283,0.3362976,1780,225
1.051652,0.02964157,0.33785996,1780,161
1.0614413,0.01793228,0.34095153,1780,96
1.066338,0.006015625,0.34251463,1780,32
1.066338,-0.006015625,0.34251463,1780,-32
1.070961,-0.01809311,0.3440094,1780,-96
1.0754449,-0.030312195,0.34550384,1780,-161
1.0798225,-0.042604066,0.34699798,1780,-225
1.0840576,-0.05500305,0.34845704,1779,-290
1.0548522,-0.06547943,0.33921936,1779,-355
1.0540732,-0.07733551,0.33915162,1779,-419
1.0531925,-0.08922546,0.3390161,1778,-484
1.0568817,-0.10153686,0.34044114,1777,-548
1.0509906,-0.11293762,0.33881286,1777,-613
1.0638885,-0.12644577,0.34321976,1776,-677
1.0246376,-0.13350587,0.33088395,1775,-742
1.0514374,-0.14907272,0.3398967,1774,-806
1.063858,-0.16307892,0.3442624,1773,-871
2.1381583,-0.35241395,0.69260865,1772,-935
1.0647206,-0.1878389,0.34537002,1771,-1000
1.025159,-0.19278122,0.3329979,1770,-1065
1.0370343,-0.20710877,0.33732238,1769,-1129
1.0626966,-0.22467408,0.3461261,1767,-1193
1.129904,-0.25224745,0.36867508,1766,-1258
2.1799607,-0.51255643,0.71257323,1765,-1323
2.1649714,-0.53479797,0.7088983,1763,-1387
2.1728125,-0.5627335,0.71279573,1761,-1451
2.198832,-0.5958954,0.7226599,1759,-1516
2.196781,-0.6218463,0.7234409,1758,-1580
2.1944091,-0.64804685,0.724292,1756,-1645
2.2008278,-0.67700773,0.7280818,1754,-1709
2.1933105,-0.70184463,0.7273448,1752,-1774
2.199147,-0.73104674,0.73104674,1750,-1838
2.177465,-0.7511499,0.7256497,1748,-1903
2.2006485,-0.78685915,0.7351944,1746,-1967
2.2143426,-0.81981355,0.7417145,1743,-2031
2.2096581,-0.84659666,0.7423804,1741,-2096
2.1959128,-0.8695885,0.7398262,1739,-2160
2.1950784,-0.89805204,0.7419054,1737,-2225
2.2070506,-0.9321347,0.7483734,1734,-2289
2.2098374,-0.9628258,0.751767,1732,-2354
2.1948485,-0.9858362,0.74920166,1729,-2418
2.2099273,-1.0226303,0.7569534,1726,-2483
2.2029545,-1.0495867,0.7572681,1724,-2547
2.2170668,-1.0869969,0.76489747,1721,-2611
2.2179503,-1.1183777,0.7680664,1718,-2675
2.2607932,-1.1719558,0.78588545,1715,-2740
2.2644854,-1.206726,0.7906361,1712,-2805
2.272255,-1.2435995,0.7964264,1709,-2869
2.287863,-1.2854621,0.80520445,1705,-2932
2.4390976,-1.4070716,0.8624335,1702,-2997
2.4279342,-1.4368286,0.86209714,1699,-3061
2.3873816,-1.449574,0.85181516,1696,-3126
2.367103,-1.4742242,0.8488443,1692,-3191
2.3511796,-1.500645,0.84688723,1688,-3254
2.3384595,-1.5300415,0.84673584,1685,-3319
2.3611898,-1.5832508,0.8595126,1682,-3384
2.339661,-1.6074593,0.85625595,1678,-3449
2.337588,-1.644993,0.8602098,1674,-3513
2.3315735,-1.6793518,0.8623352,1670,-3576
2.3206983,-1.7114966,0.86328065,1666,-3640
2.3094225,-1.7435412,0.8642132,1662,-3705
2.3204937,-1.7931556,0.8736054,1658,-3769
2.3571818,-1.8640851,0.89291245,1654,-3833
2.3440654,-1.896809,0.89355314,1650,-3897
2.301077,-1.9049525,0.8827481,1646,-3961
2.3716626,-2.0084875,0.9158972,1642,-4026
2.403193,-2.0832055,0.9349741,1638,-4092
2.401871,-2.129416,0.94088334,1633,-4155
2.3785963,-2.1565695,0.9383313,1629,-4219
2.3903213,-2.2159503,0.9496634,1624,-4283
2.3835003,-2.2594042,0.9539429,1619,-4346
2.3831148,-2.3096244,0.960964,1614,-4410
2.3944867,-2.374563,0.9736908,1610,-4476
2.4024134,-2.435658,0.98462766,1605,-4539
2.3993728,-2.486922,0.9912361,1600,-4602
2.3810709,-2.5252814,0.992728,1596,-4668
2.3603797,-2.5590112,0.99227417,1590,-4731
2.319873,-2.5711303,0.983606,1585,-4794
2.2875776,-2.5945482,0.97938734,1580,-4859
2.2785683,-2.6419754,0.9842415,1575,-4922
2.2408264,-2.6563818,0.9768637,1570,-4985
2.2843518,-2.7716606,1.0062622,1565,-5050
2.275798,-2.8234053,1.0121425,1559,-5112
2.2545264,-2.8600323,1.0125989,1553,-5175
2.2577343,-2.9321485,1.0253906,1548,-5240
2.2466202,-2.9841805,1.0309525,1542,-5302
2.2330244,-3.037505,1.0368038,1537,-5367
2.189431,-3.0466602,1.027583,1531,-5429
2.1441605,-3.0563881,1.0187567,1526,-5494
2.0843995,-3.0404487,1.0017475,1520,-5556
2.0556095,-3.0727193,1.0008633,1514,-5621
1.7721051,-2.7117057,0.87325424,1508,-5683
1.6559417,-2.5980082,0.8272894,1503,-5748
1.6157264,-2.5958061,0.8174254,1496,-5810
1.5690118,-2.5858223,0.8054248,1491,-5875
1.5270112,-2.5782561,0.7943939,1484,-5936
1.4908135,-2.5834804,0.7875374,1479,-6001
1.4665548,-2.6094227,0.78697324,1473,-6066
1.4738449,-2.6892953,0.80256104,1466,-6127
0.39968765,0.7329587,0.22641312,1517,6139
0.3348059,0.5976541,0.18657868,1523,6074
0.3122452,0.54367673,0.17152557,1530,6013
0.31833497,0.53992766,0.17220001,1536,5947
0.33894166,0.56107056,0.18089478,1542,5886
0.34267044,0.5529076,0.18022385,1548,5821
0.34850007,0.5490349,0.18096542,1555,5759
0.3520117,0.54081726,0.18027924,1560,5694
0.36572495,0.54884875,0.185047,1567,5632
0.3501361,0.5127049,0.17485154,1572,5567
0.3968921,0.5678833,0.19593018,1579,5505
0.41408202,0.5790283,0.20214051,1585,5443
0.43761322,0.59737974,0.21104035,1590,5377
0.446817,0.5962685,0.21321487,1596,5315
0.46811524,0.6100098,0.22080079,1602,5249
0.47458497,0.6047119,0.22160645,1608,5187
0.46931398,0.5840955,0.21673279,1613,5121
0.43894777,0.53424317,0.20076416,1619,5059
0.4631424,0.5513077,0.20986176,1624,4996
0.47557983,0.55311525,0.21328613,1629,4931
0.49416503,0.5621246,0.21963684,1635,4868
0.50016356,0.55648315,0.22035095,1640,4805
0.5096463,0.5541092,0.22238632,1645,4739
0.5122797,0.54481936,0.22168396,1651,4676
0.55134916,0.57351255,0.23662902,1656,4612
0.5507873,0.56039673,0.23447876,1661,4549
0.59077054,0.58790314,0.2495462,1666,4486
0.6111145,0.5942749,0.25593475,1671,4419
0.6209663,0.59059405,0.25811005,1676,4356
0.62034804,0.57697314,0.25595534,1681,4292
0.6407471,0.5827484,0.26245773,1685,4228
0.6398944,0.5690712,0.2602678,1690,4164
0.6460672,0.56172395,0.26095062,1695,4100
0.6375847,0.54193497,0.2557869,1699,4036
0.6361055,0.5285084,0.25352356,1704,3972
0.6640939,0.5392998,0.2629718,1708,3907
0.6999089,0.5554416,0.275381,1712,3843
0.69840777,0.5415405,0.27308503,1717,3778
0.62435913,0.47296143,0.24266174,1721,3714
0.62951416,0.46577942,0.24318725,1725,3649
0.8319702,0.60114443,0.3195343,1729,3585
0.84243166,0.5943494,0.32171264,1733,3520
0.86071515,0.5927797,0.32684922,1736,3455
0.92242205,0.62036395,0.34859696,1741,3392
0.9411768,0.6175842,0.35376954,1744,3327
0.9519635,0.6093521,0.35595566,1748,3262
0.9584367,0.5986116,0.35675126,1752,3198
0.9690903,0.590061,0.3589102,1755,3133
0.9590158,0.569361,0.35359222,1759,3069
0.8827631,0.5106076,0.3239258,1762,3004
0.89651734,0.5052942,0.3276123,1765,2940
0.92714536,0.5086935,0.33722076,1768,2875
0.9536037,0.509413,0.34547395,1772,2811
0.9590764,0.49860612,0.3460974,1775,2746
0.9941858,0.50273436,0.35737702,1778,2682
1.0252441,0.50405276,0.3671631,1781,2618
1.0435845,0.4985623,0.3723459,1784,2553
1.0446441,0.4846942,0.37136748,1787,2489
1.0932715,0.49230286,0.38729003,1790,2424
1.1552505,0.5046387,0.4078354,1792,2359
1.1826508,0.5007294,0.41610718,1795,2294
1.2188913,0.49988997,0.4274446,1797,2229
1.2595298,0.5001503,0.4404419,1800,2165
1.2649658,0.4857994,0.44096375,1802,2100
1.6222705,0.60218626,0.56397337,1805,2036
1.6152899,0.5790454,0.56004137,1807,1972
1.6214594,0.56075746,0.56075746,1809,1907
1.6454964,0.5483688,0.5676392,1812,1843
1.6559243,0.53116244,0.56980866,1814,1778
1.6934574,0.5221408,0.58127576,1816,1713
1.7855811,0.5285205,0.6114233,1817,1648
1.81862,0.5161441,0.6215106,1819,1584
1.869917,0.50807005,0.6378113,1821,1520
1.9672613,0.51077086,0.6697296,1823,1455
1.9957933,0.49420777,0.6781482,1825,1390
2.4123862,0.56854796,0.8181738,1826,1326
2.4184396,0.5412277,0.81873137,1828,1261
2.4334626,0.5158765,0.8225879,1829,1196
2.443554,0.4893036,0.8247986,1831,1132
2.4394324,0.45990738,0.82221514,1832,1067
2.4302795,0.42981568,0.81797487,1833,1002
2.4020262,0.39686736,0.80735505,1834,938
2.34989,0.36105698,0.7890047,1835,873
1.3765224,0.1956433,0.4616574,1836,808
1.1574417,0.15115997,0.38779083,1837,744
1.1778641,0.14034271,0.39432526,1838,679
1.1698792,0.12597534,0.39124635,1839,614
1.1569984,0.111441806,0.38673782,1840,550
1.1581573,0.098357394,0.3868126,1840,485
1.282139,0.09432235,0.4280275,1841,420
1.2925594,0.08039703,0.43131134,1842,355
1.3123432,0.06678162,0.43767318,1842,291
1.2797973,0.05063324,0.42669526,1842,226
1.2707672,0.03590454,0.42361632,1842,161
1.1952081,0.020264283,0.3983258,1842,97
1.2001054,0.0067944336,0.39994508,1843,32
1.1906184,-0.006740723,0.39678344,1843,-32
1.0766358,-0.018253937,0.35880935,1842,-97
1.0763588,-0.030411683,0.35880935,1842,-161
1.1755176,-0.046507567,0.39192748,1842,-226
1.1607368,-0.059066772,0.38711166,1842,-291
1.1457852,-0.0712677,0.3823346,1842,-355
1.1402048,-0.08388077,0.38064438,1841,-420
1.1581573,-0.098357394,0.3868126,1840,-485
1.1617209,-0.111896664,0.38831633,1840,-550
1.1462929,-0.12343552,0.3833583,1839,-614
1.290939,-0.15381561,0.4321805,1838,-679
1.2938881,-0.16897964,0.433506,1837,-744
1.2825618,-0.18228883,0.43014497,1836,-808
2.1200604,-0.32574403,0.7118366,1835,-873
2.163228,-0.35741273,0.72709167,1834,-938
2.1732306,-0.3843544,0.7314583,1833,-1002
2.1735668,-0.40978363,0.7326047,1832,-1067
2.108438,-0.4221991,0.71168333,1831,-1132
2.1687539,-0.45976013,0.7331079,1829,-1196
2.1775222,-0.48731232,0.73717195,1828,-1261
2.1766932,-0.5130002,0.7382373,1826,-1326
2.1801622,-0.53986204,0.74079466,1825,-1390
2.192485,-0.569247,0.7464043,1823,-1455
2.2090685,-0.60022,0.7534927,1821,-1520
2.19788,-0.6237822,0.7511221,1819,-1584
2.190981,-0.64851624,0.7502414,1817,-1648
2.1928682,-0.6761234,0.7526976,1816,-1713
2.2033749,-0.7067653,0.758188,1814,-1778
2.195498,-0.73165923,0.7573706,1812,-1843
2.1739233,-0.75181884,0.75181884,1809,-1907
2.2461927,-0.80520993,0.77878326,1807,-1972
2.2506776,-0.83545077,0.7824356,1805,-2036
2.2458692,-0.86250705,0.782904,1802,-2100
2.2052822,-0.8757017,0.77115965,1800,-2165
2.2089655,-0.9059378,0.77464694,1797,-2229
2.2251356,-0.94211304,0.78289795,1795,-2294
2.2233124,-0.9711914,0.7848908,1792,-2359
2.3080175,-1.039306,0.8176123,1790,-2424
2.3137574,-1.0735376,0.82253295,1787,-2489
2.3018982,-1.0997095,0.82130617,1784,-2553
2.2982557,-1.1299182,0.82305723,1781,-2618
2.2645342,-1.1451172,0.8140254,1778,-2682
2.2772782,-1.1839149,0.82179075,1775,-2746
2.285288,-1.2207959,0.8279199,1772,-2811
2.2802765,-1.2511111,0.8293808,1768,-2875
2.2495944,-1.2679142,0.8220642,1765,-2940
2.433786,-1.4077499,0.8930664,1762,-3004
2.4221296,-1.4380014,0.89304703,1759,-3069
2.3901513,-1.4553186,0.88521135,1755,-3133
2.3536294,-1.4700083,0.8760727,1752,-3198
2.34175,-1.4989548,0.8756209,1748,-3262
2.3330016,-1.5308762,0.8769287,1744,-3327
2.3555412,-1.5841911,0.89019394,1741,-3392
2.3306124,-1.6051067,0.88503003,1736,-3455
2.3283875,-1.6427156,0.88917804,1733,-3520
2.3217773,-1.6776123,0.89172363,1729,-3585
2.3184545,-1.7154316,0.89564085,1725,-3649
2.3070831,-1.7476501,0.89666474,1721,-3714
2.3141835,-1.7944019,0.9048709,1717,-3778
2.3504963,-1.8653332,0.924809,1712,-3843
2.337314,-1.8980942,0.9255432,1708,-3907
2.301746,-1.9124063,0.91737425,1704,-3972
2.3645284,-2.0098045,0.948604,1699,-4036
2.403803,-2.0899897,0.97091126,1695,-4100
2.3951354,-2.130043,0.9741867,1690,-4164
2.3789062,-2.1635742,0.9744287,1685,-4228
2.3867629,-2.2198796,0.9847774,1681,-4292
