0.46310303,0.6130147,0.20433015,1489,5293
0.4784656,0.61929107,0.20895173,1494,5231
0.48536223,0.6136551,0.20964386,1500,5165
0.50398284,0.62323457,0.21558014,1505,5103
0.5078453,0.6135887,0.21496125,1510,5038
0.5330704,0.629978,0.2235347,1515,4976
0.5558813,0.64198,0.23076904,1520,4911
0.5818857,0.657395,0.23944153,1525,4848
0.58564836,0.647265,0.23892684,1530,4786
0.5568527,0.6014694,0.22505493,1535,4720
0.56991273,0.6021942,0.22841126,1540,4657
0.5796936,0.5992279,0.23047836,1545,4594
0.6033194,0.60956633,0.23776428,1549,4529
0.62699616,0.61968017,0.245197,1554,4466
0.67172974,0.6493802,0.26070526,1559,4403
0.67548233,0.6382288,0.26000932,1563,4337
0.6823441,0.6305719,0.260775,1567,4274
0.6927176,0.6260834,0.2628662,1572,4210
0.70667785,0.6245825,0.26629394,1576,4147
0.71367615,0.6163281,0.266922,1580,4081
0.74971616,0.6330487,0.2785327,1584,4017
0.77510756,0.63982654,0.286093,1588,3953
0.80447847,0.6491402,0.29506072,1593,3890
0.81904787,0.64594054,0.29853395,1597,3826
0.8298743,0.63957,0.30064148,1601,3762
0.8291162,0.624342,0.2986084,1605,3698
0.8629953,0.63480955,0.30896607,1608,3633
0.93621826,0.67261964,0.33328858,1612,3569
0.95140535,0.6674793,0.3368045,1616,3505
0.9586429,0.65662295,0.33750612,1619,3440
0.9857613,0.65903354,0.34519547,1623,3376
1.0170804,0.6635382,0.35431427,1626,3312
1.0322021,0.6573051,0.35793227,1630,3248
1.0434375,0.64804685,0.36003906,1633,3184
1.0669616,0.6460724,0.36633912,1636,3119
1.0574609,0.6241406,0.3613672,1639,3055
1.0682974,0.6146965,0.36352387,1643,2991
1.1879413,0.66575503,0.40240845,1646,2926
1.2118798,0.66164064,0.40886718,1649,2863
1.2487625,0.6634979,0.41948014,1652,2798
1.2899323,0.66706604,0.43164185,1655,2734
1.3143625,0.6609288,0.43794906,1657,2669
1.3602234,0.66506773,0.45160767,1660,2605
1.3933221,0.6620712,0.4609195,1663,2541
1.4700339,0.67846525,0.48459595,1666,2477
1.5035303,0.6736072,0.4939856,1669,2413
1.5503539,0.67377883,0.5076637,1671,2348
1.619401,0.68230104,0.5285257,1673,2284
1.6799272,0.68564206,0.546559,1676,2220
1.7452064,0.6894812,0.5660242,1678,2155
1.8197501,0.6953703,0.5883664,1680,2091
1.9483511,0.71971315,0.6283252,1683,2027
1.9877166,0.70891345,0.6391324,1684,1962
1.9907287,0.68501586,0.6385559,1687,1898
1.9753418,0.6550621,0.6320961,1689,1834
1.9140838,0.61081237,0.61081237,1690,1769
1.9206848,0.5892151,0.61145324,1692,1705
2.0461175,0.60289216,0.6501898,1695,1641
2.2045286,0.6226503,0.69888276,1696,1577
2.2804232,0.6165201,0.7214468,1698,1512
2.5230865,0.6518944,0.79667664,1699,1448
2.5810528,0.636037,0.8136047,1701,1384
2.648347,0.62121505,0.83332247,1703,1320
2.8975768,0.64539045,0.91014177,1704,1255
2.979328,0.62848544,0.9342719,1705,1191
3.0469742,0.6069946,0.9539337,1706,1126
3.0910015,0.57982635,0.96637726,1708,1062
3.934823,0.69254214,1.2286915,1709,998
4.314752,0.7093986,1.3454978,1710,933
4.322152,0.66095126,1.3464752,1711,869
4.3384557,0.6137027,1.3501179,1712,805
4.344892,0.5648695,1.3508176,1713,740
4.341419,0.5147713,1.3484299,1714,676
4.3419743,0.4653958,1.3473746,1714,611
3.2006934,0.30673996,0.9924121,1715,547
3.1894927,0.26959077,0.98849946,1716,483
3.192253,0.23370667,0.9887039,1716,418
3.2470531,0.2010704,1.0051442,1716,354
3.2633405,0.16521789,1.0097809,1717,289
3.245813,0.12783203,1.004187,1717,225
3.1945322,0.089831546,0.9880449,1718,161
3.204799,0.054060057,0.9909987,1718,96
3.2099853,0.018046875,0.99257815,1718,32
4.3373017,-0.024384765,1.3411621,1718,-32
4.3415236,-0.07323486,1.3425004,1718,-96
4.340553,-0.12205811,1.3425004,1718,-161
4.348435,-0.17125732,1.3453152,1717,-225
4.3463497,-0.22004898,1.3448982,1717,-289
4.3341722,-0.26838914,1.3416682,1716,-354
4.364334,-0.31951538,1.3517206,1716,-418
4.3748417,-0.36978194,1.3558671,1716,-483
4.3706346,-0.41886184,1.355166,1715,-547
4.3467245,-0.465905,1.3488487,1714,-611
4.3509088,-0.51589644,1.3513772,1714,-676
4.3591065,-0.5667175,1.3552368,1713,-740
4.343187,-0.61437196,1.3515903,1712,-805
4.3552175,-0.6660077,1.3567761,1711,-869
4.376055,-0.71947753,1.3646142,1710,-933
4.3913755,-0.7728969,1.3712549,1709,-998
4.429809,-0.83096695,1.3849449,1708,-1062
4.439207,-0.88434446,1.389808,1706,-1126
4.415205,-0.9313818,1.384541,1705,-1191
4.353364,-0.9696446,1.367411,1704,-1255
4.33789,-1.0175263,1.36495,1703,-1320
4.345082,-1.0707386,1.3696655,1701,-1384
4.393411,-1.1351335,1.3872406,1699,-1448
4.4038944,-1.1906075,1.3932395,1698,-1512
4.3998523,-1.2427008,1.3948474,1696,-1577
4.3858485,-1.292298,1.3936805,1695,-1641
4.385564,-1.3453745,1.3961515,1692,-1705
4.3704915,-1.3946882,1.3946882,1690,-1769
4.372998,-1.450172,1.39933,1689,-1834
4.3615055,-1.5008075,1.3990179,1687,-1898
4.3901043,-1.565718,1.4115986,1684,-1962
4.4174595,-1.631792,1.4245899,1683,-2027
4.395121,-1.6794816,1.4210422,1680,-2091
4.4119883,-1.7430507,1.4309437,1678,-2155
4.4059305,-1.7982275,1.4334555,1676,-2220
4.4301867,-1.8665674,1.4458851,1673,-2284
4.4402485,-1.9297179,1.4539604,1671,-2348
4.4319177,-1.9855746,1.4561087,1669,-2413
4.4535937,-2.0554688,1.468125,1666,-2477
4.452573,-2.1157494,1.4729384,1663,-2541
4.437944,-2.1698887,1.4734415,1660,-2605
4.388344,-2.206684,1.4622078,1657,-2669
4.376404,-2.2631812,1.4644482,1655,-2734
4.3516197,-2.3121216,1.4617816,1652,-2798
4.3509855,-2.3754737,1.4679468,1649,-2863
4.333476,-2.4285994,1.4679407,1646,-2926
4.3106008,-2.4803123,1.4668258,1643,-2991
4.328981,-2.5550756,1.4793469,1639,-3055
4.3088837,-2.6091385,1.4794464,1636,-3119
4.238965,-2.6326904,1.4626586,1633,-3184
4.2138133,-2.6833515,1.461206,1630,-3248
4.2773657,-2.790532,1.4900806,1626,-3312
4.2423654,-2.8362455,1.4855983,1623,-3376
4.199014,-2.876117,1.4783325,1619,-3440
4.1476555,-2.9098785,1.4683006,1616,-3505
4.0842524,-2.934303,1.4539714,1612,-3569
3.9125032,-2.877993,1.4007385,1608,-3633
3.8269854,-2.881801,1.378299,1605,-3698
3.7572749,-2.8956678,1.3611612,1601,-3762
3.6876025,-2.9082208,1.3440906,1597,-3826
3.603315,-2.9075441,1.3215976,1593,-3890
3.515799,-2.9021795,1.2976849,1588,-3953
3.469275,-2.9294019,1.2888964,1584,-4017
3.41545,-2.9495704,1.2774124,1580,-4081
3.313454,-2.928527,1.2485925,1576,-4147
3.2279212,-2.9174194,1.2249024,1572,-4210
3.171309,-2.930689,1.2119957,1567,-4274
3.093919,-2.9232862,1.1909235,1563,-4337
3.036634,-2.9356,1.178549,1559,-4403
2.9533918,-2.9189308,1.1549716,1554,-4466
2.9183035,-2.9485204,1.1500845,1549,-4529
2.8750122,-2.9718933,1.143066,1545,-4594
2.7832947,-2.9409485,1.1154969,1540,-4657
2.731854,-2.9507382,1.1040931,1535,-4720
2.666156,-2.946665,1.0877112,1530,-4786
2.5993025,-2.9366052,1.0695932,1525,-4848
2.5583177,-2.954567,1.062062,1520,-4911
2.4907792,-2.9435816,1.0444691,1515,-4976
2.4345796,-2.941507,1.0305111,1510,-5038
2.413653,-2.984768,1.0324471,1505,-5103
2.3309371,-2.9470596,1.0068082,1500,-5165
2.2889557,-2.962658,0.9996147,1494,-5231
2.2281373,-2.9494102,0.98309785,1489,-5293
2.1807556,-2.9557617,0.97342527,1484,-5358
2.123876,-2.9445946,0.9583455,1478,-5419
2.090873,-2.9692323,0.9550223,1473,-5484
2.0401647,-2.9644885,0.9424878,1467,-5546
2.0095992,-2.9921181,0.9403442,1462,-5611
1.93806,-2.953595,0.9178467,1456,-5672
1.8945392,-2.9597883,0.90949404,1451,-5737
1.8529233,-2.9643028,0.9007373,1444,-5799
1.8096808,-2.9693534,0.89246035,1439,-5863
1.7640048,-2.969564,0.88287276,1433,-5928
1.7109082,-2.9512012,0.86796874,1427,-5989
1.6635226,-2.945859,0.8572696,1421,-6054
1.637207,-2.9726715,0.85598755,1415,-6115
0.4230911,0.7720059,0.23038818,1466,6127
0.36012328,0.6407629,0.19324706,1473,6066
0.35035324,0.6071388,0.18507767,1479,6001
0.3620494,0.61129624,0.18834823,1484,5936
0.3759613,0.619606,0.19299316,1491,5875
0.37521607,0.60281754,0.18982865,1496,5810
0.389328,0.61081696,0.19450378,1503,5748
0.3908667,0.598111,0.19261047,1508,5683
0.40790161,0.60973024,0.19860473,1514,5621
0.40651244,0.5929671,0.19536698,1520,5556
0.4432373,0.6318115,0.2105957,1526,5494
0.46152526,0.6422266,0.21661133,1531,5429
0.48544008,0.66032714,0.22539215,1537,5367
0.4696161,0.62378997,0.21550232,1542,5302
0.47624084,0.61850005,0.21629333,1548,5240
0.48311278,0.6128641,0.21698548,1553,5175
0.4986809,0.61867446,0.2217842,1559,5112
0.49606568,0.6018887,0.21851806,1565,5050
0.5338257,0.6328223,0.23271546,1570,4985
0.56257063,0.65229464,0.24300583,1575,4922
0.5822346,0.66036487,0.24927384,1580,4859
0.5896344,0.6534956,0.24999985,1585,4794
0.56401336,0.6114764,0.23710419,1590,4731
0.56393784,0.598093,0.23511977,1596,4668
0.5739807,0.59492433,0.23712464,1600,4602
0.60735166,0.6157562,0.24892274,1605,4539
0.6446695,0.6393054,0.26214752,1610,4476
0.66216797,0.6417481,0.26701173,1614,4410
0.66208345,0.6276123,0.26498413,1619,4346
0.66886747,0.62007445,0.26573792,1624,4283
0.6933128,0.6285965,0.27350464,1629,4219
0.6965067,0.61749876,0.2728421,1633,4155
0.70682144,0.6127075,0.27499238,1638,4092
0.7356546,0.62300307,0.28409776,1642,4026
0.77933747,0.64517653,0.2989725,1646,3961
0.8012306,0.6483528,0.30542755,1650,3897
0.8120434,0.6421729,0.3076062,1654,3833
0.81520617,0.62994844,0.30690384,1658,3769
0.83353335,0.62929136,0.31191802,1662,3705
0.8596606,0.6339929,0.31978667,1666,3640
0.9404013,0.67733854,0.34780854,1670,3576
0.947565,0.66681457,0.34869477,1674,3513
0.95874804,0.6587059,0.35087723,1678,3449
0.97786653,0.6556897,0.35595977,1682,3384
1.0010529,0.6549835,0.36247253,1685,3319
1.0243561,0.6537973,0.36896974,1688,3254
1.0434743,0.6498724,0.37419036,1692,3191
1.0546994,0.640394,0.37631562,1696,3126
1.0575917,0.6258728,0.3755237,1699,3061
1.0601172,0.6115625,0.37484375,1702,2997
1.1751865,0.660292,0.4136023,1705,2932
1.2115898,0.6631001,0.42466277,1709,2869
1.248208,0.66515994,0.43580687,1712,2805
1.2809747,0.664035,0.44528595,1715,2740
1.3137091,0.66242373,0.45493165,1718,2675
1.3551123,0.6643927,0.46751952,1721,2611
1.3881631,0.6613834,0.47718263,1724,2547
1.4602853,0.6757381,0.5001829,1726,2483
1.4893615,0.6689603,0.50838685,1729,2418
1.5446982,0.6730248,0.52549255,1732,2354
1.6091244,0.6796042,0.5456268,1734,2289
1.6783295,0.6866394,0.56725156,1737,2225
1.7434218,0.69040054,0.5873772,1739,2160
1.7953473,0.6878598,0.60318404,1741,2096
1.9459374,0.7204422,0.6518097,1743,2031
1.9850748,0.709779,0.66317534,1746,1967
1.9836121,0.68427736,0.66104734,1748,1903
1.9819473,0.6588446,0.6588446,1750,1838
1.8981445,0.6073935,0.629462,1752,1774
1.9137634,0.5887024,0.63311464,1754,1709
2.0344002,0.6007935,0.67147905,1756,1645
2.196781,0.6218463,0.7234409,1758,1580
2.2862334,0.6195816,0.7513849,1759,1516
2.431151,0.6296402,0.79754424,1761,1451
2.585938,0.6387865,0.84673965,1763,1387
2.6437821,0.621611,0.86418456,1765,1323
2.8410344,0.63425183,0.92699784,1766,1258
2.973686,0.6286932,0.96854585,1767,1193
3.0316904,0.6054666,0.9861362,1769,1129
3.080158,0.57922393,1.0005143,1770,1065
3.9258642,0.69260424,1.2734569,1771,1000
4.295114,0.70792603,1.3913062,1772,935
4.31192,0.66097474,1.395329,1773,871
4.3283386,0.61367154,1.399216,1774,806
4.334642,0.5647852,1.3997763,1775,742
4.32648,0.5142128,1.3957603,1776,677
4.317583,0.46395996,1.3918799,1777,613
3.1943421,0.3068872,1.0289567,1777,548
3.188042,0.2700879,1.0262109,1778,484
3.2002041,0.2347934,1.0296766,1779,419
3.2358308,0.20086259,1.0405784,1779,355
3.2474182,0.16476792,1.0438428,1779,290
3.2394676,0.12781219,1.0409939,1780,225
3.212059,0.09053421,1.0319252,1780,161
3.2176428,0.05435974,1.0335572,1780,96
3.1990137,0.018046875,1.0275439,1780,32
4.322477,-0.024384765,1.3884076,1780,-32
4.321923,-0.07301575,1.3882691,1780,-96
4.325573,-0.1219194,1.3896593,1780,-161
4.333561,-0.1709793,1.3925778,1780,-225
4.3362303,-0.2200122,1.3938282,1779,-290
4.304938,-0.26722687,1.3843818,1779,-355
4.334995,-0.31805098,1.3947992,1779,-419
4.355093,-0.36895934,1.4018774,1778,-484
4.35549,-0.41844118,1.4029839,1777,-548
4.3365197,-0.46599486,1.3979846,1777,-613
4.3406653,-0.51589876,1.4003366,1776,-677
4.339364,-0.56540036,1.4013011,1775,-742
4.3330536,-0.61434007,1.4007401,1774,-806
4.340164,-0.66530424,1.4044687,1773,-871
4.351505,-0.7172205,1.4095727,1772,-935
4.371452,-0.7712152,1.417995,1771,-1000
4.3955445,-0.8265825,1.4277855,1770,-1065
4.4050603,-0.8797458,1.4328604,1769,-1129
4.36731,-0.9233316,1.4224569,1767,-1193
4.333624,-0.96746767,1.414013,1766,-1258
4.313539,-1.0142075,1.4099853,1765,-1323
4.2929344,-1.0604541,1.4056787,1763,-1387
4.373304,-1.1326355,1.4346716,1761,-1451
4.370064,-1.1843109,1.4362488,1759,-1516
4.361459,-1.2346051,1.4363095,1758,-1580
4.3476734,-1.2839428,1.4350035,1756,-1645
4.3333073,-1.3329904,1.4335524,1754,-1709
4.327588,-1.384799,1.4351131,1752,-1774
4.307794,-1.4320092,1.4320092,1750,-1838
4.269274,-1.4727515,1.4227542,1748,-1903
4.329439,-1.5480249,1.4463824,1746,-1967
4.267642,-1.5800042,1.429486,1743,-2031
4.2366633,-1.6232126,1.4233947,1741,-2096
4.2188144,-1.670664,1.4213631,1739,-2160
4.204657,-1.7202125,1.4211144,1737,-2225
4.185482,-1.7677137,1.419226,1734,-2289
4.1746235,-1.8188827,1.4201697,1732,-2354
4.1371155,-1.858223,1.4121857,1729,-2418
4.1208644,-1.9069047,1.4114956,1726,-2483
4.117068,-1.9615562,1.4152466,1724,-2547
4.103932,-2.0121007,1.415874,1721,-2611
4.0861473,-2.0603957,1.4150146,1718,-2675
4.0634894,-2.1064422,1.4125296,1715,-2740
3.8922162,-2.0741303,1.3589519,1712,-2805
4.012081,-2.1958022,1.4062363,1709,-2869
3.9839654,-2.238437,1.4021411,1705,-2932
3.9671574,-2.2885816,1.4027356,1702,-2997
3.9546523,-2.3403258,1.4041955,1699,-3061
3.8427033,-2.3332183,1.3710724,1696,-3126
3.922164,-2.442711,1.4064898,1692,-3191
3.911911,-2.496785,1.4090576,1688,-3254
3.8920934,-2.546576,1.4092932,1685,-3319
3.8637652,-2.5907738,1.4064752,1682,-3384
3.8349922,-2.6348236,1.4035089,1678,-3449
3.8294156,-2.6948125,1.4091879,1674,-3513
3.8237805,-2.754137,1.4142298,1670,-3576
3.8010108,-2.8032153,1.4139447,1666,-3640
3.785312,-2.8577912,1.4165084,1662,-3705
3.7158234,-2.8713927,1.3989105,1658,-3769
3.6541955,-2.889778,1.3842279,1654,-3833
3.5887678,-2.9040174,1.3680313,1650,-3897
3.4940913,-2.8925924,1.3404169,1646,-3961
3.4550147,-2.9259448,1.33427,1642,-4026
3.4108665,-2.9567065,1.3270144,1638,-4092
3.3066115,-2.9315276,1.2952968,1633,-4155
3.2212381,-2.920556,1.2707447,1629,-4219
3.161279,-2.9306676,1.2559613,1624,-4283
3.0908842,-2.9299586,1.2370574,1619,-4346
3.0211413,-2.9279754,1.218241,1614,-4410
2.9402387,-2.9157739,1.1956146,1610,-4476
2.9085398,-2.9487882,1.1920633,1605,-4539
2.8799148,-2.9849982,1.189759,1600,-4602
2.7735188,-2.941498,1.1563493,1596,-4668
2.722261,-2.951346,1.1444046,1590,-4731
2.6581879,-2.946087,1.1270485,1585,-4794
2.586649,-2.933752,1.1074296,1580,-4859
2.5551393,-2.9626565,1.103708,1575,-4922
2.4704957,-2.9286425,1.0769855,1570,-4985
2.42521,-2.942567,1.0683105,1565,-5050
2.3997128,-2.9771366,1.0672525,1559,-5112
2.3231165,-2.947044,1.0434054,1553,-5175
2.284192,-2.9665096,1.0374069,1548,-5240
2.2263281,-2.9572265,1.0216407,1542,-5302
2.178769,-2.9637036,1.011613,1537,-5367
2.1190765,-2.9487598,0.994563,1531,-5429
2.080445,-2.9655654,0.9884836,1526,-5494
2.018921,-2.9449372,0.9702789,1520,-5556
1.9938874,-2.9804575,0.9708113,1514,-5621
1.9358466,-2.9622657,0.9539424,1508,-5683
1.8895385,-2.9644983,0.9439917,1503,-5748
1.8505554,-2.9730797,0.9362297,1496,-5810
1.8071207,-2.9782395,0.9276538,1491,-5875
1.7609886,-2.9733117,0.9161156,1484,-5936
1.7058579,-2.956138,0.90113676,1479,-6001
1.663201,-2.9593132,0.89249635,1473,-6066
1.6226242,-2.96077,0.88357663,1466,-6127
0.40661865,0.74566895,0.23033935,1517,6139
0.3536682,0.63132477,0.19709015,1523,6074
0.35307723,0.614773,0.19395584,1530,6013
0.3624121,0.6146869,0.19604309,1536,5947
0.3738327,0.6188278,0.1995163,1542,5886
0.38074493,0.61434174,0.20024872,1548,5821
0.39238524,0.6181726,0.20375367,1555,5759
0.38878906,0.59732056,0.19911438,1560,5694
0.4030983,0.60493547,0.2039569,1567,5632
0.38813537,0.56834733,0.19382767,1572,5567
0.4354788,0.6230942,0.21497895,1579,5505
0.4672412,0.65336305,0.22809097,1585,5443
0.48592117,0.6633243,0.234337,1590,5377
0.47564393,0.6347374,0.22697067,1596,5315
0.4798181,0.62526,0.2263208,1602,5249
0.48051727,0.61227083,0.22437653,1608,5187
0.49638978,0.61779326,0.2292366,1613,5121
0.4877197,0.5936035,0.22307129,1619,5059
0.52798235,0.62849075,0.2392424,1624,4996
0.56318665,0.65500486,0.2525757,1629,4931
0.5891968,0.6702255,0.2618747,1635,4868
0.5899365,0.65636474,0.25990114,1640,4805
0.56483096,0.61410826,0.24646637,1645,4739
0.55825347,0.5937134,0.24157867,1651,4676
0.5646347,0.5873321,0.24233094,1656,4612
0.6045227,0.61506957,0.25735474,1661,4549
0.64848953,0.64534193,0.27392715,1666,4486
0.66604614,0.64769286,0.2789401,1671,4419
0.66606444,0.63348633,0.27685547,1676,4356
0.66591036,0.61934966,0.27475435,1681,4292
0.69384766,0.6310425,0.2842084,1685,4228
0.7006665,0.6231171,0.28498596,1690,4164
0.71103483,0.61821014,0.28719148,1695,4100
0.7359549,0.62554777,0.29525116,1699,4036
0.76112044,0.63237715,0.303349,1704,3972
0.79765475,0.6477623,0.31585997,1708,3907
0.80845094,0.64157957,0.31808716,1712,3843
0.80788785,0.6264307,0.31589293,1717,3778
0.8185196,0.6200409,0.31812364,1721,3714
0.84830874,0.6276662,0.32770965,1725,3649
0.9093628,0.6570648,0.34925842,1729,3585
0.9282349,0.65488493,0.35447967,1733,3520
0.9432495,0.6496216,0.35819092,1736,3455
0.9778465,0.657639,0.3695427,1741,3392
0.99302125,0.6516037,0.37325683,1744,3327
1.0242646,0.655632,0.38299027,1748,3262
1.0474056,0.6541789,0.3898674,1752,3198
1.05867,0.6446045,0.3920868,1755,3133
1.0450814,0.6204575,0.38532487,1759,3069
1.0601407,0.6132063,0.38901368,1762,3004
1.1663027,0.6573503,0.42619935,1765,2940
1.2069595,0.66221815,0.4389946,1768,2875
1.2434655,0.6642566,0.45048583,1772,2811
1.2844019,0.6677368,0.4634961,1775,2746
1.3128351,0.6638672,0.47192094,1778,2682
1.3541766,0.66576964,0.48496124,1781,2618
1.3914459,0.66474974,0.49646118,1784,2553
1.4460983,0.670961,0.5140831,1787,2489
1.4837255,0.66812533,0.5256079,1790,2424
1.5432403,0.6741211,0.54480654,1792,2359
1.5987686,0.67691195,0.56251526,1795,2294
1.6721252,0.6857697,0.5863861,1797,2229
1.7412448,0.6914359,0.6088916,1800,2165
1.797583,0.69034654,0.6266327,1802,2100
1.9164184,0.7113739,0.6662323,1805,2036
1.955351,0.7009497,0.6779448,1807,1972
1.9718024,0.6819183,0.6819183,1809,1907
1.9971367,0.6655545,0.68894285,1812,1843
1.886668,0.60517687,0.64920825,1814,1778
1.9023019,0.5865335,0.65296125,1816,1713
2.026999,0.5999786,0.69409025,1817,1648
2.1841717,0.61989164,0.7464374,1819,1584
2.3098974,0.627616,0.78788453,1821,1520
2.4269018,0.63010985,0.8262085,1823,1455
2.5673368,0.6357361,0.8723523,1825,1390
2.6480792,0.62409574,0.89811033,1826,1326
2.826146,0.6324692,0.95675504,1828,1261
2.958236,0.6271246,0.999978,1829,1196
3.020698,0.60487247,1.0196081,1831,1132
3.027135,0.57070726,1.0203013,1832,1067
3.9445307,0.6976239,1.3276361,1833,1002
4.2421746,0.70090026,1.4258552,1834,938
4.2495017,0.65292937,1.4268228,1835,873
4.275206,0.6076294,1.4338166,1836,808
4.2815933,0.559169,1.4345108,1837,744
4.2732906,0.5091634,1.4306121,1838,679
4.273833,0.46021637,1.4293113,1839,614
3.1876488,0.30703354,1.0655022,1840,550
3.200296,0.27178755,1.0688658,1840,485
3.2171752,0.23667602,1.0740173,1841,420
3.2242963,0.20055084,1.0759085,1842,355
3.2405877,0.16490479,1.0807526,1842,291
3.2326734,0.12789582,1.0778006,1842,226
3.2148514,0.09083313,1.0716861,1842,161
3.210936,0.054440156,1.0701054,1842,97
3.2160928,0.018208008,1.0717895,1843,32
4.2881236,-0.024277344,1.4290527,1843,-32
4.292315,-0.07277451,1.4304955,1842,-97
4.29121,-0.12124481,1.4304955,1842,-161
4.299171,-0.17009018,1.43338,1842,-226
4.2970953,-0.2186676,1.4331032,1842,-291
4.270654,-0.26563415,1.4250653,1842,-355
4.291144,-0.31568405,1.4325496,1841,-420
4.3064547,-0.3657289,1.4383113,1840,-485
4.2832556,-0.4125621,1.4317192,1840,-550
4.2691154,-0.4597084,1.4277337,1839,-614
4.2685795,-0.50860196,1.4290347,1838,-679
4.253363,-0.55548215,1.4250525,1837,-744
4.2517157,-0.6042908,1.4259384,1836,-808
4.2213593,-0.64860535,1.4173737,1835,-873
4.2421746,-0.70090026,1.4258552,1834,-938
4.3090725,-0.7620962,1.4503323,1833,-1002
4.249183,-0.8011006,1.432195,1832,-1067
4.2354937,-0.84812623,1.4296509,1831,-1132
4.212119,-0.89293885,1.4238305,1829,-1196
4.2021546,-0.94040906,1.422585,1828,-1261
4.1916366,-0.98787934,1.4216162,1826,-1326
4.162128,-1.0306457,1.4142444,1825,-1390
4.178132,-1.0847914,1.4223931,1823,-1455
4.239395,-1.1518745,1.4460182,1821,-1520
4.1535816,-1.1788316,1.4194803,1819,-1584
4.140544,-1.2255744,1.4178158,1817,-1648
3.9952881,-1.2318604,1.3713745,1816,-1713
3.9814575,-1.2771118,1.3700317,1814,-1778
3.9987817,-1.3326114,1.3794409,1812,-1843
4.0558944,-1.4026703,1.4026703,1809,-1907
4.05836,-1.4548316,1.4070845,1807,-1972
4.06459,-1.5087744,1.4130322,1805,-2036
3.9413671,-1.5136486,1.3739502,1802,-2100
3.92443,-1.5583631,1.3723242,1800,-2165
3.9162934,-1.6061447,1.373378,1797,-2229
3.9027474,-1.6524069,1.3731537,1795,-2294
3.8929763,-1.7005371,1.3743283,1792,-2359
3.904541,-1.7582245,1.3831787,1790,-2424
3.9282074,-1.8226105,1.3964646,1787,-2489
4.0025544,-1.9121814,1.428092,1784,-2553
3.8062189,-1.8712958,1.3630929,1781,-2618
3.9002674,-1.9722656,1.4020175,1778,-2682
3.8954556,-2.0251756,1.4057349,1775,-2746
3.8732271,-2.0690696,1.4032025,1772,-2811
3.8505769,-2.112682,1.4005295,1768,-2875
3.8018975,-2.1428216,1.3893188,1765,-2940
3.8074312,-2.2022936,1.3971192,1762,-3004
3.8483584,-2.2847433,1.4189022,1759,-3069
3.774566,-2.2982628,1.3979402,1755,-3133
3.7528663,-2.3439307,1.3968995,1752,-3198
3.7315361,-2.3885574,1.3952861,1748,-3262
3.7288146,-2.446785,1.4015869,1744,-3327
3.6976058,-2.4867806,1.3973801,1741,-3392
3.6511617,-2.514577,1.3864974,1736,-3455
3.7402406,-2.638801,1.4283446,1733,-3520
3.7264526,-2.6925678,1.4312165,1729,-3585
3.6504145,-2.7009525,1.4101895,1725,-3649
3.6167145,-2.7397156,1.4056625,1721,-3714
3.6015189,-2.7925928,1.408233,1717,-3778
3.5706582,-2.8336432,1.4048849,1712,-3843
3.535651,-2.871244,1.4000678,1708,-3907
3.4636495,-2.8777742,1.3804578,1704,-3972
3.439314,-2.923352,1.3797876,1699,-4036
3.392755,-2.9498353,1.3703552,1695,-4100
3.2924175,-2.9280143,1.3391433,1690,-4164
3.2108154,-2.9201813,1.3151888,1685,-4228
3.1508074,-2.930502,1.3000218,1681,-4292
3.080548,-2.9298742,1.2804565,1676,-4356
3.0109406,-2.9279723,1.2609819,1671,-4419
2.9334815,-2.919243,1.239126,1666,-4486
2.894992,-2.9455,1.2324432,1661,-4549
2.8696728,-2.9850292,1.2316114,1656,-4612
2.7649965,-2.9406273,1.196525,1651,-4676
2.7170315,-2.9540725,1.1855882,1645,-4739
2.6450958,-2.9429398,1.1653175,1640,-4805
2.578528,-2.9331374,1.1460538,1635,-4868
2.5405974,-2.9548,1.139397,1629,-4931
2.4577422,-2.925606,1.1136664,1624,-4996
2.4264057,-2.9531775,1.1097797,1619,-5059
2.3947046,-2.9803846,1.1058929,1613,-5121
2.319534,-2.9555295,1.0831015,1608,-5187
2.279136,-2.969985,1.0750238,1602,-5249
2.2225542,-2.9659548,1.060572,1596,-5315
2.1710162,-2.9636242,1.0469794,1590,-5377
2.1151757,-2.9577394,1.0325556,1585,-5443
2.075415,-2.9695563,1.0245515,1579,-5505
2.0166755,-2.9530213,1.0070906,1572,-5567
1.9968048,-2.996634,1.0103296,1567,-5632
1.9360645,-2.974495,0.9915358,1560,-5694
1.8870633,-2.9729223,0.9798943,1555,-5759
1.8453438,-2.9775095,0.9705388,1548,-5821
1.7993814,-2.9786246,0.9603384,1542,-5886
1.7508423,-2.969602,0.94710004,1536,-5947
1.7077409,-2.9734936,0.938113,1530,-6013
1.6669562,-2.975644,0.92895156,1523,-6074
1.614923,-2.961492,0.9148137,1517,-6139
0.40404052,0.74470216,0.23783202,1568,6151
0.33699462,0.60550046,0.19542481,1574,6090
0.34141862,0.5972371,0.19483139,1581,6024
0.3602893,0.6138513,0.2024115,1587,5958
0.3617697,0.60152376,0.20050049,1594,5897
0.38070267,0.61783826,0.20821945,1600,5835
0.3902051,0.61731446,0.21036378,1606,5770
0.38367233,0.59270144,0.20427383,1613,5708
0.39296693,0.5921039,0.2063861,1619,5642
0.39113006,0.57569885,0.20299911,1626,5580
0.4277289,0.61434996,0.21916077,1631,5515
0.46208772,0.6485388,0.23409607,1638,5452
0.46367738,0.63526976,0.23205139,1643,5387
0.47040895,0.6299646,0.23290223,1650,5325
0.48293397,0.6322266,0.23660369,1656,5262
0.4840973,0.6189038,0.23450379,1661,5196
0.49668792,0.62087893,0.23819946,1667,5134
0.49117127,0.60038084,0.23327546,1673,5071
0.52555573,0.62755144,0.2469658,1678,5005
0.56027526,0.6542633,0.2608429,1684,4942
0.5767337,0.6586615,0.26608384,1690,4879
0.59653044,0.66629595,0.2727844,1696,4816
0.5652466,0.61691666,0.25600052,1701,4750
0.5718689,0.61042786,0.2568016,1706,4686
0.561911,0.5866318,0.25024262,1712,4623
0.6083237,0.6211539,0.26871216,1717,4559
0.6423691,0.6409195,0.28124848,1722,4493
0.66293794,0.646864,0.28802794,1727,4429
0.66647077,0.6359612,0.28736785,1732,4365
0.6663841,0.6217934,0.28517684,1737,4301
0.6872131,0.6270195,0.29195252,1742,4237
0.6904382,0.61592984,0.29125458,1747,4173
0.7222824,0.62993455,0.3025612,1752,4109
0.7400043,0.63090086,0.30788636,1756,4044
0.75051343,0.62542266,0.31017762,1761,3980
0.79427564,0.64684373,0.32609558,1765,3915
0.80505615,0.6406567,0.32840332,1770,3851
0.808284,0.62847215,0.32767028,1774,3786
0.8265146,0.62776124,0.3330075,1778,3721
0.83695585,0.6213176,0.3354039,1783,3658
0.9207933,0.6675195,0.3668367,1787,3593
0.93200684,0.65961915,0.36914062,1791,3528
0.9392212,0.6488525,0.36990967,1795,3463
0.96585387,0.65152895,0.37851334,1799,3400
0.98887986,0.6508438,0.38545305,1803,3335
1.0200233,0.6548149,0.39548033,1807,3269
1.0471649,0.65587157,0.40410766,1811,3206
1.0502906,0.6412953,0.40326476,1814,3140
1.0530853,0.62693024,0.40257385,1818,3076
1.0680329,0.61972964,0.40648803,1822,3012
1.1575378,0.65411377,0.43848267,1825,2947
1.1978613,0.6592236,0.4518457,1828,2882
1.2425908,0.6657756,0.46682695,1832,2818
1.2876223,0.6713827,0.48181367,1835,2753
1.316065,0.6674048,0.49049318,1838,2689
1.3488076,0.66499573,0.5007784,1841,2624
1.3901863,0.666008,0.51425934,1844,2559
1.4447241,0.67209226,0.5324341,1847,2494
1.486576,0.67119265,0.54589844,1850,2429
1.5329559,0.6713011,0.5609886,1853,2364
1.5967822,0.6780963,0.5825418,1856,2300
1.6655152,0.68501586,0.6056366,1858,2235
1.7344513,0.6907144,0.6288513,1861,2171
1.8038635,0.6946509,0.6519434,1863,2106
1.9223229,0.7155441,0.69281584,1866,2041
1.9433588,0.69848084,0.69848084,1868,1976
1.9642999,0.6810475,0.7041577,1871,1912
1.9805837,0.661675,0.7081732,1873,1847
1.8795415,0.6043497,0.6703331,1875,1782
1.890427,0.5845596,0.6727698,1877,1718
2.019258,0.5993675,0.7168373,1879,1653
2.1758568,0.6192352,0.7708713,1881,1588
2.2966413,0.6256799,0.81203306,1883,1523
2.4269562,0.6317688,0.8563492,1885,1459
2.5668316,0.63725114,0.9039737,1887,1394
2.6242995,0.6200455,0.9224579,1888,1329
2.8154418,0.63172454,0.9881226,1890,1264
2.9518793,0.62723297,1.0340631,1891,1199
3.0095077,0.6039812,1.0526841,1892,1134
3.0623147,0.5786964,1.069608,1894,1070
3.9950364,0.70827943,1.3937787,1895,1005
4.058478,0.67225343,1.4139359,1896,940
4.1028976,0.63194674,1.4277414,1897,875
4.114277,0.5861252,1.4301723,1899,810
4.1251345,0.5400635,1.4323364,1899,745
4.130774,0.49333495,1.4331421,1900,681
4.1405764,0.44711396,1.4353083,1901,616
3.2041373,0.30934706,1.1098878,1902,551
3.193126,0.27187866,1.1055157,1903,486
3.2242017,0.23775512,1.1154034,1903,421
3.221885,0.2009314,1.1139811,1903,356
3.2285852,0.16469604,1.1160296,1904,292
3.2254283,0.12787491,1.1146065,1904,227
3.2171264,0.091131136,1.1115505,1905,162
3.1896057,0.05417633,1.101757,1905,97
3.1994696,0.01807785,1.1051248,1905,32
4.149386,-0.02344513,1.4332342,1905,-32
4.14885,-0.07046936,1.4331002,1905,-97
4.1619506,-0.11789505,1.437997,1905,-162
4.1651945,-0.16513275,1.43936,1904,-227
4.153735,-0.21188965,1.4358276,1904,-292
4.1370325,-0.25800416,1.4303975,1903,-356
4.138668,-0.3051886,1.4317605,1903,-421
4.14918,-0.35328186,1.4365182,1903,-486
4.1075068,-0.3965639,1.4228078,1902,-551
4.117077,-0.4445764,1.4271625,1901,-616
4.0979156,-0.4894107,1.4217421,1900,-681
4.092321,-0.5357675,1.4209428,1899,-745
4.076832,-0.5807907,1.4171559,1899,-810
4.0701866,-0.6269084,1.4163585,1897,-875
4.0678077,-0.6737988,1.4171863,1896,-940
4.0835047,-0.7239639,1.4246433,1895,-1005
4.052107,-0.765741,1.4153235,1894,-1070
4.0482283,-0.8124431,1.4160141,1892,-1134
4.0345435,-0.85728395,1.4133277,1891,-1199
4.020082,-0.9020198,1.4109094,1890,-1264
4.000906,-0.9452974,1.4063437,1888,-1329
3.9994817,-0.9929262,1.4085171,1887,-1394
3.9792924,-1.0358624,1.4040895,1885,-1459
3.9860198,-1.0859216,1.4093536,1883,-1523
3.9738977,-1.1309464,1.4078883,1881,-1588
3.974989,-1.1798786,1.4111224,1879,-1653
3.961756,-1.225058,1.4099194,1877,-1718
3.9528966,-1.2710184,1.4097893,1875,-1782
3.9521852,-1.3203491,1.4131348,1873,-1847
3.9643958,-1.3745059,1.4211475,1871,-1912
3.9758625,-1.429002,1.429002,1868,-1976
3.960074,-1.474054,1.4272326,1866,-2041
3.9746895,-1.5306156,1.4365125,1863,-2106
3.9355316,-1.5672555,1.426886,1861,-2171
3.9008117,-1.6043793,1.4184647,1858,-2235
3.8872485,-1.6507754,1.4181551,1856,-2300
3.8649597,-1.6925156,1.4143906,1853,-2364
3.8331187,-1.7306623,1.4075928,1850,-2429
3.8095999,-1.7722434,1.403978,1847,-2494
3.7941391,-1.8176895,1.4035324,1844,-2559
3.782618,-1.8649249,1.404391,1841,-2624
3.7746942,-1.9142286,1.4068164,1838,-2689
3.7534614,-1.9571027,1.4045025,1835,-2753
3.7319562,-1.9995685,1.4020526,1832,-2818
3.697565,-2.0348952,1.3947598,1828,-2882
3.6627805,-2.0698028,1.3874844,1825,-2947
3.6600664,-2.1237657,1.3930032,1822,-3012
3.6572266,-2.177246,1.398086,1818,-3076
3.641548,-2.2234871,1.3981922,1814,-3140
3.6328568,-2.27537,1.4019427,1811,-3206
3.6080825,-2.3162472,1.3989148,1807,-3269
3.5941215,-2.3655167,1.4009438,1803,-3335
3.567746,-2.4066682,1.3981819,1799,-3400
3.5259929,-2.4359007,1.3887025,1795,-3463
3.529976,-2.4983075,1.3981202,1791,-3528
3.5175076,-2.5499804,1.4013469,1787,-3593
3.489227,-2.590242,1.398282,1783,-3658
3.4804604,-2.6435082,1.4022976,1778,-3721
3.4474251,-2.6805067,1.3975519,1774,-3786
3.4438512,-2.7405872,1.4048364,1770,-3851
3.4209268,-2.785941,1.4044861,1765,-3915
3.4157515,-2.8464358,1.4116864,1761,-3980
3.3916862,-2.891629,1.4111458,1756,-4044
3.3059692,-2.8832824,1.3848572,1752,-4109
3.2457714,-2.8955054,1.3691968,1747,-4173
3.196422,-2.9164445,1.3579535,1742,-4237
3.136541,-2.926661,1.3422722,1737,-4301
3.0733628,-2.9326706,1.3251679,1732,-4365
3.0139756,-2.9408972,1.3094879,1727,-4429
2.9346125,-2.9279902,1.2848614,1722,-4493
2.8912086,-2.9521873,1.277121,1717,-4559
2.8359978,-2.9607651,1.2629892,1712,-4623
2.754774,-2.9405181,1.23705,1706,-4686
2.7034936,-2.9506242,1.2244139,1701,-4750
2.634942,-2.943104,1.2049195,1696,-4816
2.5779681,-2.944181,1.1893802,1690,-4879
2.5243514,-2.9478197,1.1752422,1684,-4942
2.4618137,-2.939583,1.1568397,1678,-5005
2.4134095,-2.9500196,1.1462177,1673,-5071
2.375724,-2.969746,1.1393396,1667,-5134
2.317173,-2.962436,1.1224724,1661,-5196
2.2662985,-2.9668946,1.110327,1656,-5262
2.2086272,-2.9577606,1.0935043,1650,-5325
2.1713672,-2.974922,1.0866797,1643,-5387
2.110015,-2.9614,1.0689447,1638,-5452
2.0618725,-2.961482,1.0564673,1631,-5515
2.0149941,-2.9658418,1.0457954,1626,-5580
1.9834208,-2.9885244,1.041692,1619,-5642
1.9261917,-2.975603,1.025538,1613,-5708
1.8817127,-2.9769177,1.0144516,1606,-5770
1.8303982,-2.9705338,1.001108,1600,-5835
1.7964592,-2.9870186,0.995636,1594,-5897
1.74789,-2.9780085,0.9819693,1587,-5958
1.6999304,-2.973656,0.9700696,1581,-6024
1.6662512,-2.9938636,0.9662671,1574,-6090
1.6345276,-3.0126586,0.96213865,1568,-6151
0.0,0.0,0.0,0,0
0.33023408,0.5962674,0.1987558,1625,6102
0.34644258,0.60892,0.20515655,1632,6036
0.3407744,0.5842154,0.1989482,1639,5974
0.36209428,0.6047914,0.20819916,1645,5909
0.37347764,0.60879105,0.21189575,1652,5847
0.38287354,0.60832214,0.21409607,1658,5781
0.38151902,0.5918491,0.21066651,1665,5719
0.3855179,0.58325595,0.20996857,1671,5653
0.39705443,0.5867517,0.21368042,1678,5591
0.4305365,0.6215271,0.2289862,1684,5528
0.44858003,0.63194734,0.23557433,1690,5463
0.4637352,0.63841325,0.2408432,1697,5400
0.46480468,0.62542695,0.2387944,1703,5338
0.47473815,0.62363344,0.24103516,1709,5271
0.47549927,0.61066407,0.23896088,1715,5209
0.48497573,0.6089369,0.24128158,1722,5146
0.50690186,0.62161744,0.2494519,1727,5080
0.5319086,0.63779116,0.25923705,1733,5017
0.56040514,0.65709716,0.27057755,1739,4954
0.5862297,0.67223096,0.28046006,1745,4890
0.5874405,0.6580971,0.27825087,1750,4824
0.5977396,0.6548712,0.28066313,1756,4761
0.5592572,0.5992023,0.26035157,1762,4697
0.5558464,0.58243316,0.25658417,1767,4633
0.60535216,0.6203485,0.2771823,1773,4570
0.63897705,0.64031065,0.2902069,1778,4505
0.6563991,0.64267564,0.29552537,1783,4439
0.6770973,0.64826995,0.30252197,1788,4375
0.6632657,0.6209482,0.29412416,1793,4311
0.6840294,0.6261269,0.30111694,1798,4246
0.694386,0.62141234,0.3034686,1803,4182
0.7118768,0.6227556,0.3089334,1808,4117
0.73309344,0.626879,0.3159485,1813,4053
0.76177716,0.63666934,0.32611603,1818,3988
0.779505,0.63713866,0.33173522,1823,3926
0.7975891,0.6370018,0.33721694,1828,3861
0.800802,0.6248306,0.3364322,1832,3796
0.83030397,0.63281554,0.34667054,1836,3731
0.8334137,0.6203485,0.34586334,1841,3666
0.88218844,0.64161074,0.36414796,1846,3602
0.91630644,0.6505783,0.3760263,1850,3537
0.9351196,0.64804685,0.38155517,1853,3472
0.9694795,0.6560184,0.3936261,1858,3408
0.9925331,0.6551906,0.4007666,1862,3342
1.0114887,0.6516269,0.40644807,1866,3279
1.0467321,0.657518,0.41840607,1870,3213
1.0578187,0.6480438,0.42088866,1874,3149
1.0568451,0.6309174,0.4183899,1877,3083
1.0636292,0.6188568,0.419223,1881,3019
1.1443491,0.6487204,0.44909453,1885,2954
1.1844805,0.6539475,0.46289092,1888,2890
1.233213,0.6627661,0.4799341,1892,2825
1.2822528,0.67058897,0.49698853,1895,2760
1.3106076,0.6665981,0.50596344,1898,2695
1.3474823,0.6662686,0.51817656,1901,2631
1.388793,0.6671619,0.5320581,1905,2565
1.4431103,0.67321837,0.55083376,1908,2500
1.476288,0.66835177,0.5614259,1910,2435
1.539574,0.67630005,0.58368224,1914,2371
1.5860703,0.6752411,0.5991623,1916,2306
1.6456358,0.67886,0.6198387,1919,2241
1.7275977,0.6896924,0.64851046,1921,2176
1.7834313,0.6887398,0.66754305,1924,2111
1.9146587,0.71461916,0.71461916,1927,2046
1.940081,0.699216,0.72215426,1929,1981
1.9788135,0.6879236,0.7345349,1932,1916
2.0040917,0.6712891,0.7419727,1934,1851
1.8765225,0.60516113,0.6931799,1936,1787
1.8875971,0.58512694,0.6954776,1938,1722
2.0067937,0.5972754,0.7378546,1941,1657
2.2171988,0.63273925,0.81345797,1943,1592
2.2921326,0.6260779,0.8392566,1945,1527
2.4129329,0.62976956,0.8816936,1947,1462
2.5477037,0.63412124,0.9290416,1948,1397
2.6324682,0.6235208,0.9580972,1950,1332
2.7954493,0.62881833,1.0157764,1951,1267
2.9264686,0.6236054,1.0617568,1953,1202
3.0347755,0.6107245,1.0993441,1955,1137
3.0505497,0.57799256,1.1033946,1956,1072
3.9703112,0.7058447,1.4342859,1957,1008
3.98705,0.6620645,1.4382917,1958,942
4.0406713,0.6239545,1.4558496,1959,877
4.061149,0.5799933,1.4616787,1961,812
4.0671296,0.5340085,1.462609,1962,748
4.072712,0.48775786,1.4632736,1963,682
4.087126,0.44252107,1.4672997,1964,617
4.091655,0.39603102,1.4676993,1964,552
3.762679,0.3211133,1.3485779,1965,487
3.7284174,0.27562714,1.3356104,1965,422
4.017858,0.2511406,1.4384811,1966,357
4.020337,0.20560913,1.439003,1967,292
3.8576386,0.15339966,1.3800964,1967,227
3.85914,0.10948181,1.3802216,1967,162
3.8647232,0.065769196,1.3822806,1967,97
4.053542,0.02299118,1.4497582,1967,32
4.05825,-0.023017883,1.451442,1967,-32
4.0671387,-0.06921387,1.4546777,1967,-97
4.085041,-0.1158905,1.461015,1967,-162
4.0881557,-0.16256623,1.4625657,1967,-227
4.0767627,-0.20849487,1.4591995,1967,-292
4.0836477,-0.25525284,1.4620352,1966,-357
4.085294,-0.30200958,1.4634521,1965,-422
4.0301013,-0.34393555,1.4444244,1965,-487
4.030725,-0.39013368,1.4458435,1964,-552
4.0169,-0.4349176,1.4420884,1964,-617
3.9885454,-0.4776779,1.4330337,1963,-682
3.983079,-0.5229727,1.432383,1962,-748
3.9772217,-0.56800723,1.4314718,1961,-812
3.9568787,-0.6110153,1.4256592,1959,-877
3.9824033,-0.66129285,1.4366153,1958,-942
3.984226,-0.7083185,1.4393126,1957,-1008
3.9809906,-0.7542847,1.4399383,1956,-1072
3.9632227,-0.7975671,1.4356732,1955,-1137
3.9634063,-0.8445679,1.4379699,1953,-1202
3.9540894,-0.88944703,1.4367889,1951,-1267
3.9395301,-0.9331087,1.4338075,1950,-1332
3.9198961,-0.9756587,1.4294231,1948,-1397
3.9090426,-1.0202506,1.4283769,1947,-1462
3.965753,-1.0832142,1.4520471,1945,-1527
3.9175048,-1.1179688,1.4372754,1943,-1592
3.936751,-1.1716821,1.447458,1941,-1657
3.9193542,-1.2149414,1.4440705,1938,-1722
3.91017,-1.2609936,1.4444013,1936,-1787
3.8918748,-1.3036194,1.4408844,1934,-1851
3.9175158,-1.3619027,1.4541806,1932,-1916
3.9156785,-1.4112324,1.4575287,1929,-1981
3.9310198,-1.4671973,1.4671973,1927,-2046
3.9059346,-1.5084251,1.4620017,1924,-2111
3.893672,-1.5544336,1.4616175,1921,-2176
3.8718276,-1.5972117,1.4583473,1919,-2241
3.8587134,-1.6427783,1.457688,1916,-2306
3.7667665,-1.6546555,1.4280541,1914,-2371
3.7316084,-1.6893905,1.4191146,1910,-2435
3.7940528,-1.769945,1.448186,1908,-2500
3.7361088,-1.7947882,1.4313343,1905,-2565
3.720407,-1.8395718,1.4306887,1901,-2631
3.6958292,-1.8797636,1.4267844,1898,-2695
3.6749532,-1.9219168,1.4243757,1895,-2760
3.6663086,-1.9703858,1.426831,1892,-2825
3.6362727,-2.007573,1.4210428,1888,-2890
3.6388655,-2.0628376,1.428056,1885,-2954
3.6245208,-2.1088736,1.428583,1881,-3019
3.5648198,-2.1281328,1.4112613,1877,-3083
3.5489411,-2.1741624,1.4120654,1874,-3149
3.5452533,-2.226996,1.4171301,1870,-3213
3.5242813,-2.2704322,1.4161675,1866,-3279
3.5035233,-2.3127444,1.4146582,1862,-3342
3.4893413,-2.361135,1.4167352,1858,-3408
3.4677353,-2.403174,1.4149338,1853,-3472
3.4448483,-2.4458451,1.4136685,1850,-3537
3.4251924,-2.4911234,1.413844,1846,-3602
3.4097657,-2.5380468,1.4150391,1841,-3666
3.3778274,-2.5744088,1.4103187,1836,-3731
3.367859,-2.6277924,1.4149017,1832,-3796
3.353584,-2.6783705,1.4178796,1828,-3861
3.3128963,-2.7078393,1.4098747,1823,-3926
3.342343,-2.7934246,1.4308536,1818,-3988
3.3187826,-2.8379397,1.4303284,1813,-4053
3.2445843,-2.8383884,1.4080533,1808,-4117
3.2097638,-2.872447,1.4027683,1803,-4182
3.1675823,-2.899449,1.3944031,1798,-4246
3.1114454,-2.9129298,1.3797656,1793,-4311
3.0520935,-2.9221509,1.3636523,1788,-4375
2.9725015,-2.9103549,1.3382858,1783,-4439
2.902301,-2.9083586,1.3181503,1778,-4505
2.8704336,-2.9415426,1.3143315,1773,-4570
2.8252785,-2.9604146,1.3041763,1767,-4633
2.7540166,-2.9507227,1.28208,1762,-4697
2.6962554,-2.953962,1.266002,1756,-4761
2.629193,-2.945429,1.2453607,1750,-4824
2.564363,-2.9405613,1.2268252,1745,-4890
2.5140827,-2.9478614,1.2138617,1739,-4954
2.4669552,-2.9580314,1.2023236,1733,-5017
2.4077837,-2.9526827,1.1848966,1727,-5080
2.3623972,-2.9662325,1.1753225,1722,-5146
2.3011816,-2.9553125,1.1564527,1715,-5209
2.2521114,-2.958456,1.1434473,1709,-5271
2.2014062,-2.9621449,1.1309772,1703,-5338
2.144424,-2.9521775,1.1137173,1697,-5400
2.0933733,-2.9490876,1.0993469,1690,-5463
2.0518606,-2.962088,1.0913076,1684,-5528
2.0121002,-2.973404,1.08284,1678,-5591
1.9724785,-2.9841928,1.0742912,1671,-5653
1.9049997,-2.955219,1.0518994,1665,-5719
1.8607653,-2.9564457,1.0405068,1658,-5781
1.8197635,-2.966324,1.0324585,1652,-5847
1.773523,-2.9622436,1.019751,1645,-5909
1.7256235,-2.9583673,1.0074399,1639,-5974
1.6776363,-2.9486742,0.9934636,1632,-6036
1.6395423,-2.9603417,0.9867805,1625,-6102
1.6262702,-3.0127556,0.9937351,1618,-6164
0.39200592,0.72994936,0.2484024,1668,6176
0.33273193,0.60378665,0.20766358,1676,6114
0.33482757,0.5913922,0.20555939,1682,6048
0.34827346,0.5999039,0.2107872,1690,5986
0.36196044,0.60820556,0.21602905,1697,5924
0.37877074,0.6201208,0.22270264,1703,5858
0.39038116,0.62383914,0.22652587,1710,5796
0.3922461,0.6110523,0.22439575,1717,5730
0.39349365,0.5985489,0.22231293,1724,5667
0.38384032,0.57023436,0.21425538,1731,5605
0.42819795,0.62056273,0.23588134,1737,5539
0.45406723,0.64289474,0.24726334,1744,5476
0.4608902,0.63765794,0.24819489,1750,5414
0.462417,0.6244072,0.24598236,1756,5347
0.46330246,0.6114885,0.24384858,1763,5285
0.48151016,0.62119216,0.25078812,1769,5221
0.4944052,0.62286085,0.25461793,1775,5155
0.4830786,0.59495515,0.2463298,1781,5092
0.5320015,0.6406288,0.26865768,1788,5029
0.5634979,0.66349226,0.28188857,1794,4965
0.57410157,0.6603235,0.28424317,1799,4899
0.59699845,0.6714322,0.29291886,1805,4835
0.5946176,0.6539914,0.28917754,1811,4772
0.5628397,0.6053467,0.27137053,1817,4708
0.55303556,0.58163375,0.26437196,1823,4644
0.59901565,0.6160562,0.2840001,1828,4580
0.63578796,0.6394119,0.29902038,1834,4516
0.6596306,0.64868087,0.30775222,1839,4452
0.6735202,0.6475786,0.31181046,1845,4387
0.673645,0.633268,0.30950776,1850,4323
0.68749803,0.6318874,0.31352386,1855,4258
0.69085693,0.6207245,0.31276977,1861,4193
0.70829374,0.6220572,0.31837693,1866,4129
0.7366562,0.63233566,0.3288208,1871,4064
0.761673,0.6389786,0.33767396,1875,3999
0.775979,0.6361359,0.34173095,1880,3934
0.79404604,0.635952,0.34738693,1885,3869
0.8193604,0.64154357,0.35640565,1890,3806
0.82640994,0.63200986,0.3572113,1894,3740
0.83335876,0.6223755,0.35801697,1899,3675
0.8895711,0.6491263,0.38013244,1904,3611
0.90826297,0.646969,0.38581908,1908,3546
0.934787,0.6498645,0.39476547,1912,3480
0.96518296,0.6551138,0.40553588,1916,3416
0.98812866,0.6543097,0.41290757,1920,3351
1.0070316,0.6506967,0.41877288,1925,3286
1.041953,0.65680116,0.43122986,1929,3222
1.0653213,0.6544937,0.43860704,1933,3156
1.0602173,0.63505095,0.43452117,1937,3092
1.075199,0.6276526,0.43868408,1941,3027
1.1352452,0.64562607,0.46117356,1944,2962
1.1752075,0.6508347,0.4753189,1948,2897
1.2319863,0.66418946,0.4962387,1952,2833
1.2683984,0.6653247,0.5087695,1955,2767
1.3008118,0.6636032,0.5196625,1958,2702
1.3417566,0.6653467,0.5339465,1962,2637
1.3786812,0.6642227,0.54649353,1965,2572
1.4413583,0.67428774,0.56917846,1968,2507
1.4828119,0.6734583,0.5836533,1971,2442
1.541832,0.6791162,0.604715,1974,2377
1.583714,0.6763092,0.6191776,1977,2312
1.6475998,0.68142045,0.641922,1980,2246
1.7117102,0.685354,0.66489744,1982,2182
1.7804008,0.68957305,0.68957305,1985,2117
1.9067302,0.71369416,0.7363564,1988,2052
1.945343,0.7030762,0.7491333,1990,1987
1.9751221,0.68852234,0.7585289,1993,1921
1.9958203,0.6705371,0.764668,1996,1857
1.8957592,0.6129419,0.7244153,1998,1791
1.9022937,0.5913977,0.7252563,2000,1726
1.9850922,0.59256685,0.7552098,2002,1662
2.1404352,0.61253446,0.8125177,2004,1596
2.251197,0.616624,0.85277784,2006,1531
2.4122515,0.6313403,0.911846,2008,1466
2.5420606,0.63440824,0.95897734,2010,1401
2.6172152,0.6217351,0.9857181,2012,1336
2.7520766,0.620845,1.0348029,2014,1271
2.9102511,0.6216559,1.0922028,2015,1205
3.0225449,0.6100227,1.1328278,2017,1141
3.0613341,0.5815674,1.1456066,2018,1075
3.9543762,0.7049304,1.4779114,2020,1010
3.9573236,0.65883636,1.4768372,2020,945
3.8205054,0.59157103,1.4240454,2022,880
3.71521,0.5321045,1.3835449,2023,815
3.7301273,0.49097046,1.3874933,2024,749
3.8284159,0.45969087,1.4228467,2025,684
3.735254,0.40541336,1.3869854,2026,619
3.7067306,0.35970855,1.3752279,2026,554
3.6823273,0.3151471,1.365437,2027,489
3.6715424,0.27214354,1.3607178,2028,423
3.6930199,0.23151352,1.3678921,2028,358
3.8356884,0.19670196,1.4204031,2029,293
3.8423736,0.15314941,1.4220123,2029,228
3.8391874,0.10922333,1.420528,2029,162
3.8494396,0.065769196,1.4242476,2030,97
3.8498156,0.021923065,1.4244981,2030,32
3.8498156,-0.021923065,1.4244981,2030,-32
3.7181556,-0.06352615,1.375674,2030,-97
3.7173085,-0.10575592,1.375432,2029,-162
3.729914,-0.148667,1.3803924,2029,-228
3.723287,-0.1909378,1.3787796,2029,-293
3.716423,-0.23298065,1.3765607,2028,-358
3.8212104,-0.2832373,1.4161866,2028,-423
3.8038254,-0.32554534,1.4104896,2027,-489
3.697394,-0.3588025,1.371764,2026,-554
3.791213,-0.41148698,1.4077643,2026,-619
3.7911563,-0.45521697,1.408999,2025,-684
3.860356,-0.5081116,1.4359344,2024,-749
3.8498864,-0.5513933,1.4336984,2023,-815
3.8668706,-0.5987503,1.4413276,2022,-880
3.8832684,-0.64650726,1.4492004,2020,-945
3.8850822,-0.69257766,1.4520134,2020,-1010
3.8635514,-0.73396605,1.4458108,2018,-1075
3.8552399,-0.77808076,1.4449158,2017,-1141
3.8420823,-0.82070345,1.4419143,2015,-1205
3.8281798,-0.8636047,1.4394263,2014,-1271
3.818485,-0.9071039,1.4381506,2012,-1336
3.826758,-0.95502317,1.4436219,2010,-1401
3.820534,-0.9999194,1.4441855,2008,-1466
3.8229585,-1.0471442,1.448178,2006,-1531
3.797692,-1.0867964,1.4416189,2004,-1596
3.7586212,-1.1219803,1.4299324,2002,-1662
3.7372892,-1.1618733,1.424855,2000,-1726
3.733394,-1.2070907,1.4266198,1998,-1791
3.7109785,-1.2467799,1.4218045,1996,-1857
3.6839356,-1.2842102,1.4147842,1993,-1921
3.6475182,-1.3182678,1.4046249,1990,-1987
3.7077756,-1.3878303,1.4318985,1988,-2052
3.7142842,-1.4385921,1.4385921,1985,-2117
3.5849848,-1.435397,1.3925531,1982,-2182
3.5734222,-1.4779092,1.3922424,1980,-2246
3.6347535,-1.552185,1.4210632,1977,-2312
3.62632,-1.5972509,1.4222625,1974,-2377
3.5870333,-1.6291461,1.4119011,1971,-2442
3.5735452,-1.6717547,1.4111584,1968,-2507
3.533666,-1.702454,1.400705,1965,-2572
3.514727,-1.7428735,1.3986713,1962,-2637
3.394699,-1.7317903,1.3561515,1958,-2702
3.3796144,-1.7727401,1.355603,1955,-2767
3.3558145,-1.8091894,1.3517075,1952,-2833
3.3400636,-1.8497406,1.3509064,1948,-2897
3.3442602,-1.9019165,1.3585473,1944,-2962
3.384433,-1.9756792,1.3808578,1941,-3027
3.4355896,-2.057856,1.4080477,1937,-3092
3.2844057,-2.0178165,1.3522338,1933,-3156
3.3414354,-2.1062934,1.3829095,1929,-3222
3.3343053,-2.154472,1.3865669,1925,-3286
3.3226318,-2.2001488,1.3884223,1920,-3351
3.2003434,-2.1722195,1.3446716,1916,-3416
3.2465425,-2.2569983,1.371032,1912,-3480
3.2597404,-2.3219607,1.3846982,1908,-3546
3.1803122,-2.320696,1.3590143,1904,-3611
3.2197952,-2.4046326,1.3832474,1899,-3675
3.1140628,-2.3815281,1.3460371,1894,-3740
3.0949476,-2.423285,1.3462414,1890,-3806
3.157718,-2.5290184,1.381469,1885,-3869
3.140519,-2.57455,1.3830432,1880,-3934
3.0902162,-2.5924273,1.3699914,1875,-3999
3.1047363,-2.6650634,1.3858594,1871,-4064
3.0894423,-2.7132947,1.3886993,1866,-4129
3.0665588,-2.7552567,1.3883148,1861,-4193
3.0361588,-2.7905686,1.3845978,1855,-4258
3.022766,-2.841587,1.3888168,1850,-4323
2.9881048,-2.8730135,1.3833622,1845,-4387
2.9497328,-2.9007678,1.3762048,1839,-4452
2.887816,-2.9042764,1.3581821,1834,-4516
2.8593895,-2.9407325,1.3556689,1828,-4580
2.8175364,-2.9632347,1.346889,1823,-4644
2.7398,-2.9467163,1.3209819,1817,-4708
2.6885667,-2.9570255,1.3075179,1811,-4772
2.6154218,-2.9415123,1.2832636,1805,-4835
2.558496,-2.942746,1.2667358,1799,-4899
2.503409,-2.9476461,1.2523247,1794,-4965
2.4624069,-2.9651961,1.2435013,1788,-5029
2.4033911,-2.9599943,1.2255291,1781,-5092
2.3684082,-2.9837646,1.2197266,1775,-5155
2.2849846,-2.9478393,1.1901037,1769,-5221
2.2474487,-2.9662888,1.1828928,1763,-5285
2.1900976,-2.957315,1.1650207,1756,-5347
2.142441,-2.9641433,1.1537302,1750,-5414
2.0832055,-2.9495232,1.1344142,1744,-5476
2.0461357,-2.9653473,1.1271546,1737,-5539
1.9805095,-2.942251,1.1054982,1731,-5605
1.9517285,-2.9688025,1.1026721,1724,-5667
1.9018774,-2.9627993,1.0880241,1717,-5730
1.8581129,-2.9693122,1.0782044,1710,-5796
1.8116206,-2.9659727,1.0651633,1703,-5858
1.7706714,-2.975276,1.0567908,1697,-5924
1.7221522,-2.9664211,1.0423064,1690,-5986
1.6764958,-2.9611259,1.0292445,1682,-6048
1.6382426,-2.9728105,1.0224547,1676,-6114
1.6042786,-2.987307,1.0165832,1668,-6176
0.39558107,0.74174803,0.26020265,1719,6192
0.3489209,0.6363794,0.2256018,1726,6126
0.34397048,0.6114757,0.21907791,1734,6064
0.353266,0.61136717,0.2214264,1741,5997
0.37190095,0.6277725,0.22984084,1748,5935
0.3834793,0.63160324,0.23379135,1755,5873
0.3956383,0.6349857,0.23767044,1762,5807
0.39980713,0.62637085,0.23710877,1769,5745
0.40166047,0.61349976,0.23489136,1776,5678
0.39228943,0.58512574,0.2265979,1783,5616
0.428118,0.62371397,0.24438584,1790,5553
0.45978516,0.65350705,0.25909057,1796,5487
0.4667578,0.64814943,0.26003906,1803,5424
0.46240112,0.6274371,0.25477356,1810,5361
0.46624726,0.61826384,0.25414032,1816,5297
0.47901765,0.6201347,0.25806427,1822,5231
0.49743804,0.6294693,0.26524872,1829,5168
0.49223557,0.60893095,0.25985184,1835,5104
0.5380795,0.6507419,0.28127563,1842,5041
0.56649476,0.669812,0.29332504,1848,4977
0.58029467,0.670148,0.29735214,1854,4911
0.5874852,0.66338545,0.29829377,1860,4847
0.59146726,0.65305483,0.29766357,1866,4783
0.5663281,0.6114185,0.28251952,1872,4719
0.55991334,0.5910925,0.27693847,1878,4655
0.60253507,0.62196994,0.29554322,1884,4590
0.64255786,0.6485361,0.31260604,1890,4526
0.66308945,0.65434206,0.32001677,1895,4461
0.67358553,0.649899,0.3225476,1901,4397
0.6737799,0.6355585,0.32015687,1906,4332
